ply
format ascii 1.0
comment object: PointCloud
element vertex 618
property double x
property double y
property double z
property double smooth_sigma
end_header
0.2233957851144932 0.2340795768229341 -0.3069066912991298 0.9961570931977334
0.2120053706847383 0.2265710639429124 -0.3019760816312408 0.9960809052004029
0.2209010162902426 0.2325131333161033 -0.3057182811096266 0.9962000977476428
0.2145962633277140 0.2283067598782442 -0.3030448477748697 0.9960202705219279
0.2176425782729618 0.2303197456124519 -0.3043689928243032 0.9961027398118396
0.2094188011310534 0.2247989363675073 -0.3009558622014096 0.9960163769774566
0.2164896973585508 0.2295597379326482 -0.3038649244834257 0.9961292069487558
0.2245950541453312 0.2347863111391367 -0.3075456028722570 0.9960649051747876
0.2052053433301038 0.2216430070462864 -0.2995372826120545 0.9962647773435334
0.1647539336524648 0.1904756579822293 -0.2957643382268948 0.9998603153240821
0.1554189061257041 0.1830562005227275 -0.2962287884833091 0.9998637564550973
0.1564301017114471 0.1838868518133824 -0.2961798579074832 0.9998341098953992
0.1503560329226186 0.1789134573443412 -0.2964727394081038 0.9998868762540722
0.1457991275225159 0.1752274046018367 -0.2967128292072376 0.9998915261835809
0.1702791532021275 0.1947745306895259 -0.2956109631851968 0.9997567528737969
0.1562097239101249 0.1837006913379088 -0.2961895949505861 0.9998355023132507
0.1595403427915482 0.1863315748110189 -0.2960068103086181 0.9998262051716534
0.1782531897839066 0.2008722694857706 -0.2956039627006465 0.9996357679358751
0.1431066568723788 0.1730785555718758 -0.2968685788320876 0.9998919655131776
0.1765605158371598 0.1996005160357945 -0.2955925614553824 0.9996829068563529
0.1455101817244148 0.1749964086666521 -0.2967293515692174 0.9998915261835808
0.1389082349517485 0.1697296280754702 -0.2971123998713007 0.9998995838412408
0.1593165432024845 0.1861533267701973 -0.2960181438342510 0.9998262051716534
0.1294906345462832 0.1626566804594160 -0.2981106996114217 0.9999015181802779
0.1378718947941471 0.1688919944197275 -0.2971612851949643 0.9998969920325833
0.1637423553174003 0.1896688759623022 -0.2958081524324045 0.9998542800597274
0.1588749181989698 0.1858092550789465 -0.2960436044167471 0.9998258016635666
0.1579483043886089 0.1850820278186297 -0.2960954751529794 0.9998267415291957
0.1719441617881775 0.1960694969419304 -0.2955982535512929 0.9997455210326908
0.1754453124598602 0.1987601433226744 -0.2955862232614335 0.9997119676310565
0.1727908477739731 0.1967224240377763 -0.2955934994030388 0.9997374509067545
0.1501891927864614 0.1787772865389134 -0.2964809573778804 0.9998868762540722
0.1537228353771676 0.1816709428569017 -0.2963115028421107 0.9998801412050690
0.1601344172763384 0.1867941091555518 -0.2959720521216969 0.9998271025863278
0.1639735324494587 0.1898523960591413 -0.2957989824954682 0.9998619744197234
0.1418432215731170 0.1720706796696386 -0.2969419030806729 0.9998957119755769
0.1805572533240145 0.2026037948631653 -0.2956262492708173 0.9996116517275665
0.1475136336676184 0.1765983501541177 -0.2966148675213292 0.9998896626451340
0.1670508474521748 0.1922706451189197 -0.2956786061479253 0.9998489136356159
0.1508186012025747 0.1792908849952519 -0.2964498872791834 0.9998869672262555
0.1690215984206622 0.1937994763280315 -0.2956238409845552 0.9997688729350230
0.1519577436793634 0.1802238732779043 -0.2963954413572940 0.9998841554293004
0.1629609682183846 0.1890453866305323 -0.2958427494136400 0.9998581870396867
0.1680690030589390 0.1930620086271549 -0.2956448810461439 0.9998475880241889
0.1538330807849656 0.1817607809133053 -0.2963060478114779 0.9998801412050690
0.1625174885251845 0.1886910322708049 -0.2958625328941521 0.9998434030136109
0.1453017923141069 0.1748297906497261 -0.2967412469271103 0.9998915261835808
0.1367678765696160 0.1680332826492526 -0.2972479263869789 0.9998974701694092
0.1852593517136087 0.2061725890420152 -0.2959456063378452 0.9994888645827877
0.1971672663973666 0.2153736301986087 -0.2974851165407374 0.9991975953075455
0.1977208783140959 0.2158219951401977 -0.2976052121853732 0.9991021266707266
0.1693330769444545 0.1940382451177879 -0.2956192430420115 0.9997688729350230
0.1828166082674159 0.2043168508400714 -0.2957721988900944 0.9995850922530010
0.1850423786797126 0.2060085676355933 -0.2959326683218060 0.9994888645827880
0.1647954443900837 0.1905097882129640 -0.2957612708205454 0.9998603153240821
0.1894555426582710 0.2093725700263374 -0.2963033988352394 0.9994584932630398
0.1837437053798014 0.2050210271046635 -0.2958384235305777 0.9995774489177438
0.1807511057234366 0.2027476907149726 -0.2956284004304899 0.9996052743005128
0.1852925317496992 0.2061978571033058 -0.2959486711973312 0.9994888645827877
0.1678282550201456 0.1928772565888442 -0.2956499081312806 0.9998475880241889
0.1882267681206162 0.2084355984673747 -0.2961982212953483 0.9994698640002131
0.1743717949562403 0.1979449315463817 -0.2955837972133726 0.9997227632302117
0.1746751690985144 0.1981793914354114 -0.2955819596749125 0.9997227632302118
0.1916468920930738 0.2110353541346277 -0.2965543867063299 0.9994555605067961
0.1936253801484796 0.2125355278457313 -0.2967783040298932 0.9994524790037692
0.1807765344652627 0.2027666135293723 -0.2956286428699582 0.9996052743005128
0.1774317237287307 0.2002540511096776 -0.2955990660747209 0.9996441403794655
0.1604498156334619 0.1870409996563014 -0.2959542120695717 0.9998276022504345
0.2011770429679290 0.2186188290898422 -0.2983444808687714 0.9975300876446076
0.1941986285084761 0.2129946836300037 -0.2968923080739435 0.9994473077237028
0.1938855844371713 0.2127426714666847 -0.2968273268665979 0.9994512575205449
0.1799187369847375 0.2021247906707588 -0.2956153028383869 0.9996205412610885
0.1883211971489535 0.2085080982083500 -0.2962025024892593 0.9994732312494362
0.1702154824537465 0.1947249417537709 -0.2956112557633746 0.9997567528737969
0.2219539916291981 0.2332429831148036 -0.3061215935159350 0.9962560607215659
0.2314674369356045 0.2371567647087017 -0.3134515264372271 0.9918396266994632
0.2361356786915190 0.2380372143097525 -0.3184617892519760 0.9913791574535725
0.2343990271421204 0.2377107348099541 -0.3165964200600137 0.9914930153938778
0.2269930827037988 0.2359138710839217 -0.3091986236928654 0.9958899226955453
0.2321146568851942 0.2372731802997205 -0.3141540107584754 0.9916617383458726
0.2091249981536588 0.2245902499067327 -0.3008459518109988 0.9960163769774568
0.2509457903528041 0.2405072659485875 -0.3347611047439880 0.9918485580608791
0.2350132133066989 0.2378283617466282 -0.3172531059386138 0.9912959408473806
0.2213938365928807 0.2328565767578568 -0.3059043804480898 0.9962000977476428
0.2380997526329750 0.2383777114687160 -0.3206115334857723 0.9913176891625861
0.2453711706851702 0.2394885293396194 -0.3287806888216567 0.9899290917488408
0.2413886464411788 0.2389404615670085 -0.3242216602569676 0.9905948675877772
0.2144666939809668 0.2282205211660622 -0.3029900069302268 0.9960202705219279
0.2347078016112893 0.2377710296811389 -0.3169249426331442 0.9915028971778334
0.2291819235532642 0.2365281216566000 -0.3112707711324082 0.9953533731533188
0.2428064966541744 0.2391393201026821 -0.3258393747128046 0.9901092393231287
0.2314251810400874 0.2371480944581271 -0.3134072970371893 0.9919689842405217
0.2384754158130343 0.2384402381441782 -0.3210263237618036 0.9912344541182062
0.2253604595207117 0.2352052623537614 -0.3079949397838381 0.9960180926256689
0.2274929597200570 0.2360999709953193 -0.3096095549598274 0.9956949667609769
0.2051003754950126 0.2215634919480450 -0.2995020837437701 0.9962647773435334
0.1421836475885721 0.1723423005128498 -0.2969221568144161 0.9998942268884385
0.1388619132203212 0.1696925552260915 -0.2971149549426069 0.9998995838412408
0.1260822896057827 0.1601361590874509 -0.2985126105925188 0.9998986146876597
0.1368332213980147 0.1680749053876445 -0.2972333522231446 0.9998974701694092
0.1451923991635455 0.1747424056999348 -0.2967475325445144 0.9998910493941147
0.1311484078458573 0.1638826130716462 -0.2979151897113065 0.9998999572648976
0.1560180555527658 0.1835463949832043 -0.2961999051391993 0.9998409916786853
0.1524802667073711 0.1806518277775206 -0.2963704874249987 0.9998823067664960
0.1266889948766943 0.1605848327950452 -0.2984410770053713 0.9998984242658128
0.1317694380434933 0.1643422959737355 -0.2978425408306683 0.9998984443848684
0.1207087252303090 0.1561623431269650 -0.2991462840367959 0.9998958449300128
0.1477804008705582 0.1768068417612417 -0.2965973061575773 0.9998887973235371
0.1314915085089726 0.1641370679611446 -0.2978756054336857 0.9998984443848684
0.0635241223883677 0.0151028017424057 -0.5451682729735626 0.8555301897939561
0.0635682075448445 0.0111476004741295 -0.5350031505008034 0.8598667586257919
0.0642340729796948 0.0097616594542490 -0.5300408045940498 0.8766674258924527
0.0637775842080639 0.0088515706737808 -0.5298683839848549 0.8792915093205212
0.0653637338183757 0.0090390214361648 -0.5247592515984904 0.8886576095501565
0.0729708792375145 0.0389481551423362 -0.4759542089590126 0.9994075602193352
0.0718898863232283 0.0345282782194551 -0.4832688076901121 0.9993034498123745
0.0728300223918428 0.0379820608485953 -0.4778514707653834 0.9994039800960713
0.0720474249270083 0.0351130372958982 -0.4823470835342084 0.9993560096867086
0.0726393925859148 0.0372736583701395 -0.4789705781031044 0.9993954703738729
0.0726011688903986 0.0371382913170677 -0.4791785386067841 0.9993954703738729
0.0707983998780151 0.0304727129200500 -0.4896655618667780 0.9990582249250047
0.0673643841858809 0.0178307898653965 -0.5094837275001142 0.8923195429336379
0.0694052163576920 0.0252989148670915 -0.4978233836734002 0.9739595524774652
0.0684286598135821 0.0216513406537361 -0.5035964645173583 0.8911261620558917
0.0689582948258563 0.0235997741889497 -0.5005434187914947 0.9352444703021366
0.0671887492018518 0.0167826288139823 -0.5115472371240306 0.8922667254389990
0.0707814325593171 0.0304094192726406 -0.4897656224492120 0.9990582249250047
0.0701470906612767 0.0280520044286346 -0.4934844929587009 0.9980680563572920
0.0664479967496440 0.0139681317124754 -0.5160509821033507 0.8931112193047269
0.0694052604867580 0.0252879127995030 -0.4978523214284067 0.9739595524774652
0.0718574517912263 0.0344062381591006 -0.4834626208412575 0.9993034498123745
0.0729810315958405 0.0389681225984782 -0.4759357288239420 0.9994075602193352
0.0726338760108841 0.0373159689382892 -0.4788513393932564 0.9993954703738729
0.0723433730556279 0.0361992815521554 -0.4806452896861823 0.9993826815739264
0.0716213974179521 0.0335313170117961 -0.4848406970561761 0.9992497933420412
0.0682303393163582 0.0208032163715675 -0.5050495693333640 0.8924244229355210
0.0697133018782671 0.0264367822796042 -0.4960357418369363 0.9942352992168456
0.0708686775955518 0.0307343857147670 -0.4892523194917622 0.9990902401658710
0.0736084754110645 0.0481531552834574 -0.4563752882753004 0.9995200740226232
0.0735770233488467 0.0487078317537344 -0.4550644289934211 0.9995200740226233
0.0731160150579721 0.0400985906572172 -0.4736407171887607 0.9994312535802792
0.0735236626789873 0.0497177544667088 -0.4526835913450878 0.9995091825395634
0.0733145894340322 0.0540699078555665 -0.4424552523586941 0.9997828201973269
0.0736437406993006 0.0459410621515585 -0.4614687934679599 0.9995349104508778
0.0736430530491262 0.0469544865406704 -0.4591574805206716 0.9995271689276788
0.0735515690688800 0.0491569475112947 -0.4540030536417675 0.9995103531233182
0.0734609337752740 0.0510402936767607 -0.4495766208643862 0.9996281225745355
0.0736453717915724 0.0447434643780863 -0.4642006725924776 0.9995348982806155
0.0736427887314886 0.0451486114284628 -0.4632720770352881 0.9995423999128363
0.0732933980269027 0.0414119114786592 -0.4710355626410193 0.9994537143185467
0.0736213005160940 0.0438405298091154 -0.4662111575159096 0.9995022451281459
0.0733853898192124 0.0526023048274005 -0.4459048438877011 0.9997656057066022
0.0733094035478185 0.0415306395721939 -0.4707998389571870 0.9994537143185467
0.0733460971005747 0.0534166792800413 -0.4439906552746789 0.9997828201973269
0.0734738324825233 0.0427481255116948 -0.4683820427769556 0.9994436859261634
0.0736428559213128 0.0463420597131289 -0.4605531534366836 0.9995271689276790
0.0734771743878114 0.0506994506696902 -0.4503774572980774 0.9995207000942695
0.0736475199177674 0.0473364409977659 -0.4582937830214069 0.9995271689276788
0.0735400972535859 0.0433527912532151 -0.4671468220971211 0.9994646788511776
0.0736437475620394 0.0459368431950649 -0.4614785943246080 0.9995349104508778
0.0736427762815626 0.0468621718706066 -0.4593675608592266 0.9995271689276788
0.0736487667136540 0.0443790109358932 -0.4650387612117003 0.9995191321414584
0.0734620375232533 0.0426798369593074 -0.4685121162225935 0.9994436859261634
0.0730997137923349 0.0398909896071975 -0.4740868699788764 0.9994312535802792
0.0736453299174242 0.0474943775543188 -0.4579313976068679 0.9995271689276788
0.0734375071858232 0.0515260477656062 -0.4484348707498381 0.9997023932497078
0.0733889390765307 0.0525287364110475 -0.4460777633397233 0.9997656057066022
0.0733810579461776 0.0420454126372620 -0.4697829966880386 0.9994324736139852
0.0733107438717425 0.0541500238933727 -0.4422669595306040 0.9997828201973269
0.0736242862874680 0.0478729853375192 -0.4570372883180600 0.9995271689276788
0.0736408820497932 0.0442024341940324 -0.4654254232510456 0.9995022596201252
0.0735339366345689 0.0494916820427213 -0.4532140110962355 0.9995091825395633
0.0732150875512689 0.0561122941618320 -0.4376536425669167 0.9998239878775436
0.0731582950702322 0.0572809271086967 -0.4349063563558852 0.9999094758634349
0.0732280558923292 0.0558465780186923 -0.4382783593861247 0.9998095648825130
0.0731989713968675 0.0564436747133167 -0.4368746027837749 0.9998239878775436
0.0731322307215659 0.0578184150327653 -0.4336428581253720 0.9999417495996864
0.0731769981044152 0.0568952771569214 -0.4358129236946005 0.9998819480399510
0.0732610187543686 0.0551703056054651 -0.4398682786546412 0.9997908676408227
0.0731894748820815 0.0566387216330018 -0.4364160575768153 0.9998539701417594
0.0732701680589341 0.0549824394051076 -0.4403099449814000 0.9997908676408227
0.0732217902659284 0.0559750078771424 -0.4379764144721340 0.9998095648825130
0.0731658233052013 0.0571257414414078 -0.4352711615520860 0.9999094758634349
0.0731753063532074 0.0569299842018193 -0.4357313272516506 0.9998819480399510
0.0731476589860623 0.0575002280107679 -0.4343908337819982 0.9999285441219933
0.0732095505652807 0.0562252011367190 -0.4373881634240122 0.9998239878775436
0.0732054359765862 0.0563099559903856 -0.4371889214593386 0.9998239878775436
0.0630137923470849 0.0050686428184603 -0.5260850845991749 0.8838179617505688
0.0643595455096604 0.0073534683196246 -0.5252991874661757 0.8838172998813555
0.0653824396649259 0.0099089585764915 -0.5225562096692831 0.8886575333869392
0.0650731640659714 0.0087370343459071 -0.5244196402263116 0.8886576095501565
0.0652328301088531 0.0092963021094256 -0.5235762093893026 0.8886576095501565
0.0635933877970708 0.0060527439431607 -0.5257464340137624 0.8838172998813555
0.0639958844471810 0.0067363139037438 -0.5255108066650381 0.8838172998813555
0.0654766072972093 0.0111258253359170 -0.5197386330258085 0.8862885597188316
0.0649588888715728 0.0083594941084925 -0.5249657575873379 0.8838172998813553
0.0647613019030095 0.0080362991592071 -0.5250625710342004 0.8838172998813555
0.0623184261219036 0.0038867435508767 -0.5264949656487895 0.8862899189790058
0.0625596502526846 0.0042963494331041 -0.5263534885323327 0.8862899189790058
0.0582620119687529 -0.0039793861803578 -0.5270185551882073 0.8952183125992581
0.0605588897732942 0.0007382565322750 -0.5272224143579854 0.8886624352880558
0.0613492473003712 0.0022407831590587 -0.5270635959572255 0.8886588736036248
0.0610111093552563 0.0016659318591241 -0.5272613526882228 0.8886588736036246
0.0604214421745671 0.0004570109996473 -0.5272113159360193 0.8886624352880558
0.0590790744164589 -0.0019334994922849 -0.5274619562779309 0.8931232285576931
0.0610949692283445 0.0023960225473705 -0.5278522242679076 0.8886588736036246
0.0630323238477619 0.0083681508325751 -0.5312194306868456 0.8792915093205212
0.0608116851262530 0.0019837482814942 -0.5279772166626577 0.8862935872483981
0.0625453144027923 0.0061131769732828 -0.5286981779013605 0.8801525030225481
0.0624053746338914 0.0112576071441203 -0.5373194762011144 0.8566286079290523
0.0624234828056444 0.0055971837147246 -0.5286512837775034 0.8801525030225481
0.0615861222563579 0.0151323780004026 -0.5446312444639289 0.8532786301561306
0.0630383561995738 0.0123996623489382 -0.5388451635984114 0.8580287926717466
0.0587428463079166 -0.0027258608974317 -0.5273294652936653 0.8952183125992581
0.0404126541940535 0.1144747043399239 -0.2648146101753858 0.9987456174006718
0.0436921388510127 0.1252719139826479 -0.2435933336341469 0.7970849980731931
0.0541599930836738 0.1311619072262234 -0.2210684732412206 0.8555492059112243
0.0376814061164749 0.1053491019506954 -0.2827059768342984 0.9269079930576133
0.0562554965217079 0.1309724542186537 -0.2185013102187732 0.8555498225967888
0.0447111360760061 0.1288747929970410 -0.2366127948343991 0.8177290948007012
0.0392156304673589 0.1104743354669917 -0.2726538647364820 0.9979532708651484
0.0454149965436549 0.1305788207408635 -0.2330153622870556 0.8294035407015261
0.0494947907334720 0.1310247024572760 -0.2272199534742675 0.8502027264585700
0.0414010459251303 0.1177684924251665 -0.2583563805754685 0.9850171148503444
0.0688252276561658 0.1242810357722027 -0.2053521231343740 0.8771228732605398
0.0553865389241591 0.1332741362030300 -0.2186810515142763 0.8605305074973318
0.0618198403040905 0.1286230600900856 -0.2124341112927345 0.8556619835430429
0.0663810778205666 0.1255932274738485 -0.2079009216278382 0.8548909501706691
0.0543459000369214 0.1315847299698713 -0.2206025897974831 0.8555492059112243
0.0650283803940650 0.1264312865573776 -0.2092676850622475 0.8515493011356845
0.0596690795333056 0.1301509571712436 -0.2145331533882667 0.8589205811141638
0.0473200651841262 0.1318456643555106 -0.2286691147132866 0.8383261501358803
0.0672259335205634 0.1250549612458949 -0.2070531330534294 0.8646516400093794
0.0568786735078336 0.1315964729665067 -0.2174719352061361 0.8605303078578244
0.0511208453044343 0.1319384877975757 -0.2242484229281167 0.8520276429683545
0.0683389430886527 0.1245231238987439 -0.2058666424611528 0.8722708277538233
0.0512658921131855 0.1330855331285888 -0.2229888407378089 0.8572488237772734
0.0594659497672179 0.1303156214409600 -0.2147233866445194 0.8589205811141636
0.0634257356037270 0.1275036251127528 -0.2108581165865063 0.8559742196398500
0.0618184092246204 0.1285756735163940 -0.2124545692732210 0.8556619835430429
0.0592136451046932 0.1304028548675065 -0.2150059404280373 0.8605370245139325
0.0625383632344080 0.1280919640204561 -0.2117408434217403 0.8558625423309565
0.0583306173188475 0.1306883119088193 -0.2160031882972500 0.8605322691516349
0.0870660937737509 0.1168587733074577 -0.1853809567683795 0.9996855371134231
0.0730961160714267 0.1225218812608138 -0.2006852054569948 0.9242640655076290
0.0642324828350633 0.1269663435614247 -0.2100565742364142 0.8515493011356844
0.0780365487262934 0.1204253686518938 -0.1953112772972398 0.9841845645375893
0.0875799165147287 0.1166619893691299 -0.1848136019189636 0.9997330119267873
0.0690040512767428 0.1241981070805362 -0.2051604883189959 0.8803713965417507
0.0958567666196965 0.1135522943907096 -0.1756532887644309 0.9999936999998648
0.0834826044661013 0.1182524704721633 -0.1893301993592055 0.9995653366807329
0.0719505802956509 0.1230037223457030 -0.2019330139782127 0.9018864945919732
0.0798364966784292 0.1197050401509162 -0.1933354167962271 0.9896514059159480
0.0862773864211672 0.1171657790044536 -0.1862500695943833 0.9996800352993723
0.0721278933986855 0.1229308993373234 -0.2017391706649551 0.9048225002491445
0.0861077555968455 0.1172318958326925 -0.1864369622973656 0.9996800352993723
0.0918369239030743 0.1150620751903421 -0.1801023414985858 0.9999891549069878
0.0873579018783221 0.1167451078207615 -0.1850594213474143 0.9997284950553114
0.0842688607426959 0.1179470817400196 -0.1884635490428750 0.9996148735956408
0.0845828796417416 0.1178247854742814 -0.1881175324698855 0.9996148735956409
0.0775090866853857 0.1206529345836428 -0.1958834812184917 0.9774562456592921
0.0765768318980206 0.1210495318741605 -0.1968971312794910 0.9686675976158119
0.0815503917876838 0.1190173893413354 -0.1914547010025697 0.9989376733576220
0.0830957119371970 0.1183979995726706 -0.1897587269853287 0.9994773900667369
0.0910171599972836 0.1153703607676320 -0.1810095120115049 0.9999886388936098
0.0755710411222203 0.1214750565999266 -0.1979917062917864 0.9629783589559235
0.0690588871999271 0.1242110295074964 -0.2050863840051634 0.8803713965417507
0.0872085372594311 0.1168035521113347 -0.1852239089061447 0.9997238248676080
0.1045175799340946 0.1103035877545182 -0.1660667600465843 0.9999969376144153
0.0974780699465368 0.1129436465212243 -0.1738587945647192 0.9999940255818346
0.1079686314709395 0.1090279121874941 -0.1622442279956554 0.9999977503427426
0.0945839567411342 0.1140302887498238 -0.1770620136509527 0.9999936999998645
0.1063596478531327 0.1096197199889126 -0.1640267322063194 0.9999971085191421
0.0922617893712794 0.1149023050420538 -0.1796321729743785 0.9999893167002439
0.1043253883598525 0.1103749227705396 -0.1662796165671541 0.9999969376144153
0.1014846837730989 0.1114401654810550 -0.1694240242485651 0.9999962506873479
0.1035679883926417 0.1106587382105887 -0.1671180250891944 0.9999964824638879
0.0904890772000160 0.1155689572224521 -0.1815938994681693 0.9999880720992815
0.1055587120969470 0.1099147805248373 -0.1649140103603559 0.9999971085191423
0.1028901571292303 0.1109128138405854 -0.1678683423642445 0.9999964824638879
0.1059831677497888 0.1097580008402148 -0.1644438402059146 0.9999971085191423
0.0872983446526679 0.1167676820659767 -0.1851252660378710 0.9997284950553114
0.1009494084467898 0.1116410674559038 -0.1700164943760391 0.9999962506873478
0.0981091076760657 0.1127068392537943 -0.1731603255172263 0.9999940255818348
0.0981993913872715 0.1126729630039807 -0.1730603932089423 0.9999940255818348
0.1118661616698928 0.1075951936201727 -0.1579263448757408 0.9999992412579349
0.1098885647913911 0.1083221203083196 -0.1601172256368091 0.9999991599459426
0.1083717175322579 0.1088797359284507 -0.1617976621209315 0.9999988375257894
0.1076965202460903 0.1091279559434077 -0.1625456899166880 0.9999974604203925
0.0914138473384206 0.1152212795025471 -0.1805704975436493 0.9999888161803330
0.0893780363945882 0.1159867685201137 -0.1828234071893909 0.9998632348990977
0.0958243517826519 0.1135644498698828 -0.1756891699804465 0.9999936999998648
0.0917559701670240 0.1150927258822050 -0.1801918629220698 0.9999891549069878
0.1005252444966280 0.1118001559537217 -0.1704860026131884 0.9999959042539133
0.0987540383409804 0.1124648423326129 -0.1724464729574063 0.9999946870451742
0.0934736430556128 0.1144471162777255 -0.1782909336596033 0.9999932485844019
0.0943042260278546 0.1141351016625543 -0.1773716828512478 0.9999936999998645
0.1043345890315731 0.1103712310256188 -0.1662694720892416 0.9999969376144153
0.1035540733021927 0.1106639376548614 -0.1671334308848652 0.9999964824638879
0.1055921088520207 0.1099028529783932 -0.1648769687352726 0.9999971085191423
0.1061636908739310 0.1096914024169594 -0.1642438647456367 0.9999971085191421
0.1011811599691076 0.1115540436013567 -0.1697599881423261 0.9999962506873479
0.1115254196713693 0.1077204178882138 -0.1583038345694745 0.9999992366067721
0.1139458397056570 0.1068308857457317 -0.1556223808400044 0.9999992153664250
0.1126789100193996 0.1072965043753626 -0.1570259448026738 0.9999992263270411
0.1080610134622773 0.1089939851164328 -0.1621418812812355 0.9999980681507928
0.1113498623230706 0.1077849379214572 -0.1584983252017283 0.9999992366067721
0.1100239354402263 0.1082723240952296 -0.1599672545923540 0.9999991599459426
0.1125597820072803 0.1073402875702426 -0.1571579204787765 0.9999992395071490
0.1098048584169117 0.1083528529639350 -0.1602099593268664 0.9999991599459428
0.1099719596299152 0.1082914447086112 -0.1600248362150322 0.9999991599459426
0.1136519571892553 0.1069389003749175 -0.1559479580785761 0.9999992153664250
0.1114105691684289 0.1077626392761690 -0.1584310720019231 0.9999992366067721
0.1086776249124160 0.1087672740671033 -0.1614587649011691 0.9999991599459428
0.1125626712646508 0.1073392216297689 -0.1571547193896334 0.9999992395071490
0.1134825052963425 0.1070011750739052 -0.1561356847080174 0.9999992153664250
0.0449536535188479 0.1307302010442538 -0.2333605277458880 0.8294035407015261
0.0441106186205534 0.1269917365043162 -0.2403468467116419 0.7967720421780669
0.0422170813290897 0.1204733711783598 -0.2530471972653168 0.9149795573123567
0.0430973352316958 0.1233441734088516 -0.2473941027305264 0.8438625505459587
0.0602170892641252 0.1471806575999595 -0.2146508350824755 0.8523136754529242
0.0552433110039530 0.1418867810925178 -0.2171230698603886 0.8589221394074599
0.0519329396003392 0.1387783340353594 -0.2191054886524060 0.8621159116066063
0.0534899170459728 0.1421201758580101 -0.2175494317203021 0.8589173504905486
0.0496343035190361 0.1376932346885085 -0.2207391034727789 0.8589117559722825
0.0456435153482821 0.1347829094661173 -0.2264399862986936 0.8465504658069878
0.0456606177708127 0.1387616325641870 -0.2218895330554043 0.8538714978143209
0.0463537997848116 0.1411825257143438 -0.2191276396700287 0.8605339874358314
0.0554359248151461 0.1425876581544322 -0.2169232239904371 0.8589221394074597
0.0526554162702718 0.1403133033425821 -0.2182912501172679 0.8621159116066063
0.0449643772568418 0.1337468370528187 -0.2286143585882977 0.8362412198369583
0.0585010764442622 0.1449380833223664 -0.2155871855532545 0.8555752303485239
0.0491155900379567 0.1402054753687295 -0.2193308529102486 0.8605339874401545
0.0507051491555020 0.1410254987221876 -0.2185288223231510 0.8589122896462091
0.0528734001217204 0.1411748936692831 -0.2179808033128941 0.8605339408166469
0.0576572145439129 0.1440473212207692 -0.2160089599618621 0.8555752303485237
0.0576608066773997 0.1440371651962159 -0.2160100594226006 0.8555752303485237
0.0477992571291944 0.1404285199621880 -0.2194445204779107 0.8605339874401545
0.0630653656997636 0.1506772846978133 -0.2131326186199137 0.8449142387003057
0.0561711882668372 0.1418364825496558 -0.2168670750460471 0.8572624001411024
0.0570842249991959 0.1429436621231040 -0.2163866093879693 0.8572624001411024
0.0547502781437664 0.1379069509044934 -0.2180215542314768 0.8621154914554765
0.0606963341972919 0.1478170025931193 -0.2143880716144349 0.8507823707986879
0.0607383254558215 0.1478590383598827 -0.2143674431120556 0.8507823707986879
0.0613656807984411 0.1486104044397295 -0.2140361072402121 0.8507823707986879
0.0634707486425513 0.1511689380201605 -0.2129172785692685 0.8444840168197449
0.0680191228968197 0.1567015348962933 -0.2104993459343774 0.8347296553618967
0.0631258132439435 0.1507502725431132 -0.2131005480474951 0.8449142387003057
0.0696536550255036 0.1586890840952018 -0.2096305236652957 0.8495644394340195
0.0697104640417396 0.1587582521987703 -0.2096003142070801 0.8495644394340195
0.0681687983936354 0.1568834635237908 -0.2104198010600610 0.8332155009957690
0.0656292217843939 0.1537955306053635 -0.2117696745420711 0.8393701362618458
0.0649796420586898 0.1530052256826560 -0.2121150480224248 0.8393701362618458
0.0656356843045793 0.1538038511094091 -0.2117661452300759 0.8393701362618458
0.0706612767823934 0.1599143635120114 -0.2090949122561527 0.8623421729469796
0.0140166380522785 0.1712680362580778 -0.1936984914449260 0.9999870260287355
0.0239691414382725 0.1609069093832505 -0.2027761285317900 0.9875627654848981
0.0324403438889012 0.1520870871830061 -0.2105036152964942 0.8326569405734966
0.0185352663333538 0.1665638215156988 -0.1978199874883983 0.9993304309712401
0.0235968235145854 0.1612944985094442 -0.2024365566416340 0.9875627654848981
0.0188943092971855 0.1661900410897950 -0.1981474647943283 0.9993139312631077
0.0401521014628894 0.1136051337753592 -0.2665191047226689 0.9997952436598450
0.0425218988362539 0.1214899940691877 -0.2510541753843124 0.8974571148420796
0.0411334939840897 0.1168887261761564 -0.2600859535711998 0.9908443993679182
0.0445918215552262 0.1296907441534811 -0.2354739329068014 0.8172228049325023
0.0438268336750166 0.1258615424683512 -0.2424913842731372 0.7953816267216042
0.0444515124645573 0.1288848373949668 -0.2369246191046840 0.8121135643308304
0.0412925328528989 0.1174211933598487 -0.2590428870365024 0.9850171148503444
0.0435649110905436 0.1249019346421686 -0.2443393012728501 0.8013475997515690
0.0384163977797793 0.1078088872173693 -0.2778792967945400 0.9794497247022292
0.0239995300041600 0.1608752729496817 -0.2028038461258140 0.9875627654848981
0.0318167406282968 0.1527365407242615 -0.2099344989936383 0.8522957867339346
0.0355772252089122 0.1488427718106037 -0.2133450336415880 0.8346926530403680
0.0267703090571960 0.1579907251485237 -0.2053310726736576 0.9339404935634783
0.0447134812680529 0.1353725207231818 -0.2264305851443705 0.8465504658069878
0.0447146117124987 0.1360436234007860 -0.2255611979732864 0.8484685846974983
0.0357196450456963 0.1486859613110384 -0.2134839082223649 0.8367996122234269
0.0450887950842528 0.1327719454539630 -0.2299689126368189 0.8362412198369583
0.0387196303930751 0.1456741045613626 -0.2160901603220656 0.8426973829085950
0.0255312226028155 0.1592806802998643 -0.2042009122452624 0.9687640774617048
0.0444139857294413 0.1359711156197830 -0.2258323094529359 0.8484685846974983
0.0426704528951712 0.1429797316167648 -0.2180809972183826 0.8539971252288189
0.0304060483562233 0.1542057570103089 -0.2086471647899979 0.8593733996402353
0.0368614899890978 0.1475286714410377 -0.2144881399679037 0.8407318943547426
0.0450070865506849 0.1319200055535056 -0.2314179867088708 0.8340402723083383
0.0426859971458890 0.1404722156795113 -0.2209071909530033 0.8485214462919661
0.0437028236932443 0.1380921991723369 -0.2233303591340751 0.8465505493925982
0.0385023611177463 0.1450681170170428 -0.2168318094529327 0.8406276153880100
0.0285618401256126 0.1561252149249637 -0.2069656014507569 0.8665640411643279
-0.0143242064730784 0.2016440962362425 -0.1683103626207876 0.9999398962214476
0.0134145880866447 0.1718943677979955 -0.1931494126148233 0.9999880194832877
0.0099184930757229 0.1755321997572761 -0.1899607496497776 0.9999871691711724
-0.0061015617025405 0.1925849747166084 -0.1754378180260855 0.9999443783441225
-0.0089434496661748 0.1956803567508903 -0.1728943852555962 0.9999461692264259
-0.0105040756399092 0.1973792514213780 -0.1714954019457116 0.9999451170714015
-0.0000434308945374 0.1859951502825452 -0.1808716141825245 0.9999455487717537
-0.0114716210776595 0.1984490238370241 -0.1706631686640494 0.9999410270751506
-0.0084846671427181 0.1951810684633535 -0.1733058845061218 0.9999482014582661
-0.0076022160831440 0.1942194845698911 -0.1740947570892354 0.9999463934867525
-0.0085953653789056 0.1953013587349333 -0.1732062180764183 0.9999482014582661
0.0054904038375610 0.1801625058181623 -0.1859190535852104 0.9999461158544068
-0.0024337772402760 0.1885931385642724 -0.1787249355009196 0.9999444141760797
-0.0011454172032360 0.1871932989829128 -0.1798820869221120 0.9999432317526845
0.0009242846429098 0.1849576806404840 -0.1817487181560944 0.9999444270262998
-0.0131869221210191 0.2003667469919014 -0.1692389359624907 0.9999375936819392
0.0080388948646121 0.1774867918103628 -0.1882465896790625 0.9999736199778867
-0.0170829315091285 0.2047416430782981 -0.1660556126780706 0.9999392655997212
0.0026196734710492 0.1831775109890232 -0.1832974311608124 0.9999432862605634
-0.0043663746076918 0.1906955385872061 -0.1769914957127364 0.9999466279962445
0.0040413263005165 0.1816830267792796 -0.1845952464387124 0.9999421793321710
-0.0115140207572684 0.1984941462996832 -0.1706224952166673 0.9999404434317054
-0.0408889290898378 0.2315478618198119 -0.1470844847540318 0.9999880457990808
-0.0445993913228588 0.2357390241951637 -0.1442123385043587 0.9999863412606145
-0.0447951127687951 0.2359601019606296 -0.1440608380059977 0.9999859980728723
-0.0359967736958327 0.2260219143427623 -0.1508713860271384 0.9999895022745434
-0.0414392225838931 0.2321694459013569 -0.1466585072491995 0.9999873338963824
-0.0367219201205543 0.2268410177410129 -0.1503101627430202 0.9999886893043414
-0.0329856373588721 0.2226213506788668 -0.1532078127892775 0.9999887924691095
-0.0242188584596042 0.2127527432624901 -0.1602197026739052 0.9999472933691694
-0.0298815585177459 0.2191154484734863 -0.1556140470524751 0.9999656945250023
-0.0327112777255227 0.2223115343188533 -0.1534208667899487 0.9999887924691095
-0.0361703573275503 0.2262179475051752 -0.1507366914365258 0.9999892537418396
-0.0425195320801616 0.2333897130849376 -0.1458222822636856 0.9999873338963824
-0.0432856264280614 0.2342550569172041 -0.1452292732136670 0.9999869789787064
-0.0411905974400775 0.2318886111608404 -0.1468509641424986 0.9999876993140686
-0.0355840027268646 0.2255557633117301 -0.1511917111726422 0.9999897302165216
-0.0405479153941375 0.2311626702605383 -0.1473484653810737 0.9999880457990806
-0.0296491203883541 0.2188542478879762 -0.1558030141585800 0.9999656945250021
-0.0342653761339633 0.2240665705191138 -0.1522146655402868 0.9999898367581904
-0.0390488374961920 0.2294693903114519 -0.1485089277944897 0.9999883754495829
-0.0381183563318832 0.2284183646335242 -0.1492292052793920 0.9999886893043416
-0.0268911492506631 0.2157549919275774 -0.1580451459242431 0.9999515502347387
-0.0441413363785954 0.2352216267335163 -0.1445669005099581 0.9999866704480866
-0.0435013811886292 0.2344987633355912 -0.1450622650935362 0.9999869789787064
-0.0441572681881777 0.2352396225515398 -0.1445545682294299 0.9999866704480866
-0.0455493297513738 0.2368120300925063 -0.1434770274557715 0.9999859980728723
-0.0215653986645091 0.2097739159152779 -0.1623901113433153 0.9999460821098073
-0.0178711712251487 0.2056265494314856 -0.1654109830726042 0.9999427692111708
-0.0120295273075468 0.1990636904150165 -0.1701780173200081 0.9999392863618268
-0.0293820629363738 0.2185542865597897 -0.1560210748063417 0.9999606961247590
-0.0268632350405731 0.2157235164911558 -0.1580671344418617 0.9999515502347387
-0.0199927812977695 0.2080083804981342 -0.1636760282711900 0.9999459391648985
-0.0314430955047845 0.2208793061169204 -0.1544046513650063 0.9999864902902046
-0.0172979103293446 0.2049830562918947 -0.1658799836564512 0.9999404507622609
-0.0255284247042917 0.2142233181336479 -0.1591507893795061 0.9999503056447724
-0.0144365182817516 0.2017710456491889 -0.1682207130505551 0.9999398962214476
-0.0158955073016155 0.2034089245659280 -0.1670275534009450 0.9999389800726578
-0.0259057003232969 0.2146473399484253 -0.1588444816685802 0.9999504264262258
-0.0109462117776909 0.1978694529660514 -0.1711179762456041 0.9999427261655751
-0.0344776457846743 0.2243062901924333 -0.1520499401010799 0.9999898367581904
-0.0177939594857087 0.2055399473068287 -0.1654743351624884 0.9999419852534757
-0.0301751559656444 0.2194470376286488 -0.1553861603135181 0.9999716703440563
-0.0221230912040645 0.2103999618826551 -0.1619337926997440 0.9999481964815731
-0.0252934243774089 0.2139592155768335 -0.1593416716658871 0.9999483568470439
-0.0224906246284814 0.2108125943939096 -0.1616333253776656 0.9999491926894639
0.0097662273675529 0.1756902732736019 -0.1898219201755461 0.9999868567839367
0.0006691596843124 0.1852226865805975 -0.1815147410326239 0.9999466377786700
0.0034105464235099 0.1823451827843970 -0.1840190357943057 0.9999421793321710
-0.0050039272528916 0.1913895453533125 -0.1764202643052418 0.9999455391699039
0.0007857412840529 0.1851008183791813 -0.1816213694030863 0.9999455545206033
-0.0103240911703483 0.1971806856236812 -0.1716512041978840 0.9999451170714015
-0.0038763569155636 0.1901617351884620 -0.1774298469882328 0.9999466279962447
-0.0040809982532459 0.1903842928975381 -0.1772461402768191 0.9999466279962447
0.0082933604193333 0.1772277351957553 -0.1884779055641168 0.9999858754640188
0.0056181904811479 0.1800280095310205 -0.1860356798486890 0.9999461158544068
0.0069133719156588 0.1786694429644514 -0.1872184688136058 0.9999543088860284
-0.0071842826457172 0.1937643105355188 -0.1744687795178037 0.9999453751149489
0.0116913381585840 0.1736875405022638 -0.1915776908950040 0.9999883634715733
0.0033929258090748 0.1823635809222485 -0.1840029822951797 0.9999421793321710
0.0205188788072550 0.1644988074001903 -0.1996291888296826 0.9939749017134951
0.0131834184079353 0.1721348730827535 -0.1929385760943766 0.9999880194832877
0.0183490717674582 0.1667577026876734 -0.1976501426074403 0.9993304309712401
0.0150480829728903 0.1701946800396494 -0.1946392585509274 0.9999861039210874
0.0077085382945692 0.1778302334389851 -0.1879453217260851 0.9999730065420361
-0.3555931682460103 0.0390980780719774 -0.1818538199386775 0.9995055134221741
-0.3592227169079237 0.0377779237632441 -0.1846998797196169 0.9995161294596930
-0.3665056984516984 0.0351290175031622 -0.1904110919092860 0.9995458378165781
-0.3712393016816430 0.0334073499697124 -0.1941231269197611 0.9998743403260167
-0.3617027546266869 0.0368759058604384 -0.1866446926393025 0.9995307447188674
-0.3545829759870983 0.0394655643231955 -0.1810618166758971 0.9994951102703785
-0.3623863383725682 0.0366272784603223 -0.1871807501286892 0.9995372621533112
-0.3241588212475539 0.0532026705388761 -0.1618995830526474 0.9988552322482176
-0.3178366206991847 0.0555083978132035 -0.1588380050781503 0.9990178786794868
-0.3202472762362655 0.0545774444714682 -0.1600201571543306 0.9989154874059527
-0.3296927370764933 0.0508358824961766 -0.1647986016300097 0.9988575660535517
-0.3239221453690853 0.0533024021494150 -0.1617773965818040 0.9988552322482176
-0.3497697607677815 0.0412404285315831 -0.1773357984210143 0.9993633113499540
-0.3223400456791242 0.0538483357691382 -0.1610208480758773 0.9988584699839378
-0.3453198785333478 0.0429663875405400 -0.1740596053562397 0.9992170472696364
-0.3405940555490603 0.0453490630665139 -0.1712618896428670 0.9989038877206893
-0.3414848888167679 0.0449007777132627 -0.1717901586088477 0.9989278403784726
-0.3260556636882869 0.0524423528262692 -0.1628633480755152 0.9988485755683725
-0.3300996469162723 0.0506307742838246 -0.1650399604892121 0.9988515953183928
-0.3225807057093180 0.0537563156183150 -0.1611386292073222 0.9988579270229310
-0.3198759018934596 0.0547184670995733 -0.1598393474859894 0.9989477909794022
-0.3207046841818708 0.0544178278922372 -0.1602376234735877 0.9988992376052006
-0.3156583180057890 0.0559647541827382 -0.1579803436475493 0.9990342528841528
-0.3325162372738501 0.0494146016984002 -0.1664725982685751 0.9988704836325137
-0.3292580868014907 0.0510282516563069 -0.1645666735509112 0.9988490660640111
-0.3253985920590172 0.0527072297237466 -0.1625288939455583 0.9988525509544931
-0.3348477745197385 0.0482411803624597 -0.1678549977442717 0.9988756494153362
-0.3163528051750342 0.0558261571736688 -0.1582516229444899 0.9990341611214101
-0.3244456586471756 0.0530927087360038 -0.1620430664183300 0.9988594887666965
-0.3507190104457206 0.0408719798509675 -0.1780340619981925 0.9994039500977017
-0.3265051018965890 0.0522437419793487 -0.1631024089519029 0.9988552056445086
-0.3384425638663753 0.0464319930402813 -0.1699863982393896 0.9988892719124370
-0.3153443703277805 0.0560419959149751 -0.1578528445736490 0.9990479820741487
-0.3274671452316547 0.0518184022712006 -0.1636142722062578 0.9988502847643465
-0.3149105992840576 0.0561110686870636 -0.1576918318722457 0.9990513307910749
-0.3090092327376144 0.0574090724330647 -0.1554915413935408 0.9990636466696354
-0.3115299525146502 0.0568662612218875 -0.1563952837589072 0.9990682597081429
-0.3123280140275369 0.0567082956716395 -0.1566817804539645 0.9990749884221858
-0.3169945592851349 0.0556877475528889 -0.1585056398214278 0.9990341611214101
-0.3185993790464579 0.0552164620133494 -0.1592107013534373 0.9989928203262545
-0.3127410583069312 0.0566171695073613 -0.1568415579634339 0.9990693434411129
-0.3150608885935368 0.0561041056787196 -0.1577407210871767 0.9990479820741487
-0.3242145916532006 0.0531803275497344 -0.1619278033986517 0.9988552322482178
-0.3134570308784501 0.0564563022721782 -0.1571184923454778 0.9990629115634788
-0.3140460861784042 0.0563284286283952 -0.1573474896485716 0.9990669993604712
-0.3098061062477098 0.0572363574684923 -0.1557764187211035 0.9990705750212592
-0.3798580253120120 0.0302725117982897 -0.2008821667724993 0.9999996110895389
-0.3807689597299255 0.0299411488965457 -0.2015966554059591 0.9999999029979503
-0.3773968867376652 0.0311677631729739 -0.1989518319369689 0.9999973088005687
-0.3749107499424185 0.0320719994664191 -0.1970022368228760 0.9999612616132421
-0.3807290391936635 0.0299556704170422 -0.2015653439736435 0.9999999029979503
-0.3777250571519240 0.0310484160987591 -0.1992091395961201 0.9999973088005686
-0.3742947316984853 0.0322960535920842 -0.1965191594409346 0.9999546686542092
-0.3761646024810481 0.0316159572834199 -0.1979854967715207 0.9999892616032886
-0.3813539841852831 0.0297283389373630 -0.2020555193699675 0.9999999736582863
-0.3732844014497838 0.0326635225644355 -0.1957268708891723 0.9999341809363308
-0.3700510243838320 0.0338395409155561 -0.1931912926045731 0.9997243394867629
-0.3562602434587008 0.0388553996418232 -0.1823767495988506 0.9995121069950409
-0.3776647783316968 0.0310703435490111 -0.1991618590175726 0.9999973088005686
-0.3630121865124361 0.0363996493040490 -0.1876715269218565 0.9995373975621467
-0.3585372836592628 0.0380272210364395 -0.1841623642969410 0.9995219937350273
-0.3697707220934638 0.0339414900282232 -0.1929714834186017 0.9997243394867628
-0.3584523705231500 0.0380581127517350 -0.1840958063341452 0.9995219937350273
-0.3718309744475587 0.0331921514389213 -0.1945871100229978 0.9999023185210211
-0.3559884838823052 0.0389542567674326 -0.1821636931379447 0.9995123812828928
-0.3597940211051016 0.0375701310564268 -0.1851478766995949 0.9995235970533792
-0.3633452474596864 0.0362785105536795 -0.1879327055795464 0.9995311851242015
-0.3722351900566671 0.0330451332432440 -0.1949040916512645 0.9999023185210211
-0.3651916502740607 0.0356069525348872 -0.1893806336582083 0.9995390857876252
-0.3648902476434259 0.0357165759930683 -0.1891442760754695 0.9995390259973566
-0.3437263749449833 0.0437639576261293 -0.1731089045118074 0.9990660469441740
-0.3304172854014036 0.0504575695490986 -0.1652376924741809 0.9988553977315201
-0.3310897162063220 0.0501301268876475 -0.1656251772940096 0.9988724651398742
-0.3341386825578535 0.0485970083957885 -0.1674340210463641 0.9988690884190199
-0.3294404773387368 0.0509377062490253 -0.1646723121935481 0.9988490660640111
-0.3601774460774355 0.0374306758632917 -0.1854485558750818 0.9995170278382476
-0.3293279548080078 0.0509858920695850 -0.1646120670326640 0.9988490660640111
-0.3506015474514581 0.0409238174957146 -0.1779599592845799 0.9993967687794307
-0.3458362692733738 0.0427543136546019 -0.1744254122862983 0.9992468734387996
-0.3155235671794024 0.0559048808936531 -0.1579554478785928 0.9990411526504249
-0.3425768747555291 0.0443459922195072 -0.1724314501342163 0.9989912963398083
-0.3405176483260590 0.0453874409897655 -0.1712164766201280 0.9989023307961972
-0.3190544370422575 0.0549821806409076 -0.1594586976722599 0.9989785936116378
-0.3393557844635488 0.0459735299878292 -0.1705291240039871 0.9988868207685985
-0.3511418293024963 0.0407149675531220 -0.1783592955238129 0.9994118337347181
-0.3423299689214748 0.0444693405307147 -0.1722839525939582 0.9989912963398083
-0.3245285195364128 0.0530046328609514 -0.1621076384594069 0.9988594887666965
-0.3512521997844386 0.0406734332488045 -0.1784431004663271 0.9994173318434444
-0.3554098559225732 0.0391646239150314 -0.1817098046799114 0.9995045545417081
-0.3487230634721316 0.0416466588027401 -0.1765651534909709 0.9993235817880470
-0.3252055629050773 0.0527713090059410 -0.1624357863637307 0.9988422264981611
-0.3310349299623601 0.0501559928715705 -0.1655947757934703 0.9988724651398742
-0.3422031033311447 0.0445368686565349 -0.1722131446875605 0.9989912963398083
-0.3517613382412441 0.0404900634304366 -0.1788458502385190 0.9994350696861528
-0.3235217959068860 0.0534055602948114 -0.1615998024407962 0.9988522077310730
-0.3260031176089478 0.0524354449467375 -0.1628457272304132 0.9988546561083027
-0.3218211511222729 0.0540076830915319 -0.1607772613187173 0.9988737140162463
-0.3320094499640751 0.0496691283191624 -0.1661719093304947 0.9988752475060567
-0.3245115414442789 0.0530542511825849 -0.1620814553922023 0.9988594887666965
-0.3188583005937072 0.0549998717253969 -0.1593844314851834 0.9989785936116378
-0.3226364028025984 0.0537252461843257 -0.1611643719561932 0.9988579270229310
-0.3568368085347672 0.0386456972956582 -0.1828288574670691 0.9995256595704577
-0.3490929069164336 0.0415033493238020 -0.1768379530126971 0.9993352224909831
-0.3465961969379384 0.0424675885230304 -0.1749945129987726 0.9992722975596517
-0.3528330939693035 0.0401025424672137 -0.1796906866863213 0.9994567193990076
-0.3290639731552425 0.0511080548369225 -0.1644674137821029 0.9988490660640111
-0.3213230814161367 0.0541687125733361 -0.1605451690320550 0.9988869313965073
-0.3273147782264799 0.0518666303470415 -0.1635410085366933 0.9988502847643463
-0.3258564862715919 0.0525051879872499 -0.1627691065433817 0.9988491526400304
-0.3134213278523683 0.0564171528845350 -0.1571114060695787 0.9990629115634790
-0.3332987276564764 0.0490199317643687 -0.1669360455718932 0.9988599174866469
-0.3527624733491692 0.0401278113984633 -0.1796345182238620 0.9994567193990076
-0.3273700070331649 0.0518481553049362 -0.1635676608279881 0.9988502847643465
-0.3220015802322043 0.0539513379247150 -0.1608624668973697 0.9988584699839376
-0.3280549324272737 0.0515570568285679 -0.1639273514685461 0.9988599263399054
-0.3365133971268078 0.0474028471245738 -0.1688428140359036 0.9988777346111294
-0.3444503452099367 0.0433967727964132 -0.1735347885378312 0.9991445332179354
-0.3205758818112344 0.0544348376224888 -0.1601870357801357 0.9988992376052004
-0.3473184158894572 0.0421902857813713 -0.1755296951760824 0.9992844354617675
-0.3169471277158285 0.0555194653251716 -0.1585580599423819 0.9990341611214101
-0.3377472104450270 0.0467822362069342 -0.1695745805398250 0.9988800923447687
-0.3463645065726209 0.0425521953118720 -0.1748174196184818 0.9992571525079570
-0.3262615920045118 0.0523335976496144 -0.1629800674405473 0.9988485755683727
-0.3353768832833090 0.0479747836381621 -0.1681687293808174 0.9988846436523270
-0.3536424804274526 0.0398077842954912 -0.1803246282232733 0.9994804223659697
-0.3612557711090390 0.0370384771260983 -0.1862941617381594 0.9995307447188672
-0.3387124045188850 0.0462965471189819 -0.1701467890904192 0.9988897005533416
-0.3176782280440378 0.0553676163310116 -0.1588562303420622 0.9990178786794868
-0.3481518984207460 0.0418673314200802 -0.1761425953641624 0.9993142536466062
-0.3520998208181444 0.0403684367290088 -0.1791141581814641 0.9994483555032123
-0.3412378406869129 0.0450220165140005 -0.1716399722512586 0.9989208809592731
-0.3157242728614078 0.0558952934650853 -0.1580264925607295 0.9990342528841528
-0.3190922690959569 0.0549330486510456 -0.1594894097531264 0.9989785936116378
-0.2541720716739903 0.0645767137410777 -0.1412167667878446 0.9968127328223271
-0.2377537783121420 0.0673860581788375 -0.1394158081745013 0.9935675615203138
-0.2415863344042703 0.0666947488713848 -0.1397270997508551 0.9944479584090139
-0.1998940009230165 0.0740070921887392 -0.1387944729345148 0.9884519243359200
-0.1924301411830958 0.0753381875172642 -0.1389514462580625 0.9892015349712491
-0.1916864621332075 0.0754536485080492 -0.1389828492879316 0.9893391956690663
-0.2326938102277364 0.0682999505872331 -0.1390232573859829 0.9930894096851216
-0.2047899714619023 0.0731644238488586 -0.1387427030514465 0.9881625319306153
-0.2177530741833015 0.0709613677393932 -0.1386186111996676 0.9901733291281333
-0.2172373435982427 0.0710521459756092 -0.1386245466704287 0.9898406290977749
-0.2223699951719950 0.0701921060062550 -0.1385804901110696 0.9915264454925606
