ply
format ascii 1.0
comment object: PointCloud
element vertex 622
property double x
property double y
property double z
property double smooth_sigma
end_header
0.2645392619741859 0.0453436388673426 0.0188344152064490 0.9992416615057064
0.2682545871747246 0.0449558870545458 0.0192179281794728 0.9992414035074489
0.2439326321647252 0.0493229301385225 0.0159018544047585 0.9990882603353244
0.2485374890987226 0.0484300576317628 0.0165587177009987 0.9992335025574896
0.2789389812260529 0.0447001996954437 0.0198693118173301 0.9991637169768698
0.2902267787840431 0.0446017103705652 0.0204434137360301 0.9986708960210100
0.2504637508955305 0.0480565053892001 0.0168336720646152 0.9992751183051480
0.2705436436190449 0.0448989899337568 0.0193590028700639 0.9992295224698931
0.2461099715464851 0.0489008524019539 0.0162121189147545 0.9991245645221147
0.1357339858204724 0.0617248785535226 -0.0077162216348621 0.9990611181587885
0.1035225432006405 0.0679582670744539 -0.0246875333296683 0.9995230624528000
0.1396225463105907 0.0613685137452484 -0.0064490719744901 0.9990725758073919
0.1332005478985299 0.0619517886955420 -0.0085309486155687 0.9989969940748771
0.1476872494169658 0.0606246816293583 -0.0038121452863594 0.9991168132848189
0.1123876025611615 0.0661395714616090 -0.0198217509687309 0.9988255399147082
0.1274540928968619 0.0630537153197291 -0.0115615791592892 0.9989301606915767
0.1439140088337416 0.0609734066498328 -0.0050469963217685 0.9991478361321714
0.1164743002512279 0.0653025173279234 -0.0175809700110278 0.9988444839707358
0.1421007823433138 0.0611406409832888 -0.0056400064347273 0.9991328087572504
0.1080799565209277 0.0670227877568286 -0.0221851846948321 0.9988318436378484
0.1495935453343935 0.0604475225492477 -0.0031871534260824 0.9990786479768693
0.1455798085335541 0.0608196045339357 -0.0045019506753087 0.9991431217276326
0.1217346022875127 0.0642259594900333 -0.0146981435428272 0.9989252151705202
0.1328812496450255 0.0619808779375488 -0.0086346405045337 0.9989969940748771
0.1210688764363999 0.0643621289055472 -0.0150628829293137 0.9989396093057016
0.1178576439501511 0.0650193973746100 -0.0168228728292196 0.9988724754109245
0.1145463794284611 0.0656970938626600 -0.0186374676997356 0.9988266762115515
0.1109422280325136 0.0664358366391536 -0.0206146413146640 0.9988387862341995
0.1305193513599629 0.0624201724593385 -0.0098707280111376 0.9990109094159157
0.1276359051282912 0.0630162888072838 -0.0114615925500849 0.9989301606915767
0.1395382526099765 0.0613764480455593 -0.0064769737751046 0.9990725758073918
0.1300348831672697 0.0625214894825458 -0.0101403343193175 0.9989977959605247
0.1841394704024487 0.0574812959872660 0.0065300546176623 0.9995529901978673
0.1589704189369700 0.0596085390330048 -0.0002601036711859 0.9989641125190661
0.1739579322884108 0.0583462429972665 0.0040635208195958 0.9996700767095550
0.1846808810687659 0.0574347941471200 0.0066239442291404 0.9995373527332698
0.1969940536428234 0.0563770542273175 0.0087511866348738 0.9994370716792157
0.1647048298855998 0.0591259438395299 0.0013931234458862 0.9995405853362195
0.1621375050067861 0.0593421527153217 0.0006522991868458 0.9992170676019100
0.1687973304163261 0.0587810816323115 0.0025749182734641 0.9996338914783920
0.1886219299979555 0.0570961721438984 0.0073066181517337 0.9994282913631874
0.1637851339830297 0.0592034651248789 0.0011274276721066 0.9995318411221171
0.1577934580251178 0.0597077076303579 -0.0005999519699177 0.9989251053422972
0.1732022864211069 0.0584099068833052 0.0038457826946536 0.9996593482064755
0.1802337230242681 0.0578186181646788 0.0059337956914305 0.9996663357669276
0.1516231272292468 0.0602584992300059 -0.0025202712579758 0.9989220651217053
0.1677730458789107 0.0588673917000277 0.0022792025279257 0.9996174946581748
0.1892710988242136 0.0570403858506142 0.0074189940230662 0.9994223964562100
0.1702990664233922 0.0586545391547755 0.0030084515201470 0.9996518029093162
0.1893103495067447 0.0570370132520355 0.0074257823388131 0.9994229854585597
0.1819681456354648 0.0576681175115949 0.0061727721871856 0.9996571306587541
0.1802324496151103 0.0578187250753032 0.0059334073027653 0.9996663357669276
0.1750598197289461 0.0582533894604152 0.0043784393426846 0.9996724871281927
0.1624589242875019 0.0593150827852377 0.0007450540707766 0.9992781676750744
0.1792292133820816 0.0579023786791201 0.0055942505852981 0.9996730654677013
0.1741384844524858 0.0583310235391915 0.0041139129084575 0.9996726170218521
0.1774501948948779 0.0580520082137801 0.0050663758730442 0.9996750722360760
0.1548189387096985 0.0599601954801131 -0.0014672200530939 0.9989005009430629
0.1553399172380530 0.0599141383734792 -0.0013070678022201 0.9989005009430627
0.1924463996871205 0.0567676964365457 0.0079669034411528 0.9994193808489710
0.1873275725514097 0.0572073938735882 0.0070825742090550 0.9994365677403207
0.1522394231742426 0.0602011955672900 -0.0023181975323517 0.9989093471849637
0.1935717392830634 0.0566710637806752 0.0081611139982742 0.9994308974091517
0.2011506623871774 0.0560108981897792 0.0094395262790945 0.9994506620093940
0.1947550829666113 0.0565694436298704 0.0083652768069344 0.9994306425657624
0.1603295097132681 0.0594944052814436 0.0001306247386359 0.9990794582918651
0.1699804967052944 0.0586813831727779 0.0029164718437032 0.9996517103732554
0.1943948054132419 0.0566003898849486 0.0083031414089165 0.9994306425657624
0.1986663356841685 0.0562337853986391 0.0090407559667947 0.9994335719246857
0.1707972144817294 0.0586125630700785 0.0031523001182551 0.9996518029093162
0.1808778548390840 0.0577621784142327 0.0060087898821418 0.9996641829011308
0.1740356219954658 0.0583396988939384 0.0040859607067163 0.9996726170218521
0.1469259798972614 0.0606954061053548 -0.0040615524828127 0.9991301619270722
0.1651076404074557 0.0590919977298974 0.0015094624413640 0.9995448210041586
0.1772006657781109 0.0580730028597557 0.0049929986507965 0.9996758842066421
0.1975912141629331 0.0563258518061043 0.0088544580956142 0.9994335825120405
0.2427943125611564 0.0495441267197086 0.0157380619102449 0.9990853049888312
0.2070976393016828 0.0554821270353854 0.0104093294000497 0.9994731597567730
0.2362643346104037 0.0508133838118564 0.0147968554085291 0.9993085553283065
0.2206973245144071 0.0538224774393088 0.0125479098023988 0.9996774430559869
0.2192447068191210 0.0541017872473578 0.0123376426491230 0.9996758642753237
0.2293144112771019 0.0521629762672017 0.0137947863795061 0.9996586594491058
0.2317289915180266 0.0516947395499378 0.0141431679771716 0.9995884423169428
0.2330274838114417 0.0514423125618483 0.0143302915325798 0.9995259443624505
0.2244810948760566 0.0530945110319641 0.0130955420933472 0.9996912042434888
0.2081635857296472 0.0553873343162832 0.0105831337927782 0.9994784509713140
0.2031916971132346 0.0558294450221315 0.0097724194716791 0.9994488330184481
0.2382809222385341 0.0504215389129409 0.0150875210743790 0.9991690665056827
0.2398194263535715 0.0501224745816399 0.0153091616078975 0.9991261031469248
0.2046221853549392 0.0557022597385180 0.0100056982219948 0.9994453661385126
0.2273453058048172 0.0525428097042966 0.0135100092280098 0.9996773480350898
0.2216278424585715 0.0536434950228151 0.0126825921240048 0.9996798377464037
0.2367772547841475 0.0507137303470029 0.0148707945705454 0.9993002605671442
0.2156976137958330 0.0547267409431698 0.0118136954845904 0.9996694967071408
0.2375577403122639 0.0505620782866339 0.0149832976074161 0.9992305622448266
0.2110207757629958 0.0551332384972381 0.0110490048590760 0.9995070999915914
0.2094829471567785 0.0552700082846066 0.0107982588371373 0.9994958288691049
0.1999318927149754 0.0561195925929889 0.0092418359039927 0.9994405282422921
0.2061916315833863 0.0555626969032531 0.0102616069110193 0.9994578754398180
0.2155667458189766 0.0547361581577535 0.0117918555016062 0.9996649045635581
0.2149408392137300 0.0547868381383618 0.0116886498374426 0.9996628998618792
0.2069687073226896 0.0554935927858717 0.0103883074728926 0.9994700242306526
0.2423238557105644 0.0496356360973377 0.0156700907321481 0.9990853049888312
0.2020523816131503 0.0559307344032451 0.0095866057312479 0.9994576335026776
0.2313532189936033 0.0517678498053732 0.0140890370803018 0.9996161031184017
0.1995988783081729 0.0561497456199840 0.0091892515275325 0.9994370814028424
0.2309287939185159 0.0518503190815417 0.0140278605904893 0.9996306365423205
0.2195522742184934 0.0540426651705693 0.0123821663636210 0.9996796874224896
0.2266371539944515 0.0526791814458823 0.0134075258601438 0.9996810408502133
0.2330004948405110 0.0514475594339458 0.0143264023446057 0.9995259443624505
0.2234685589754658 0.0532894671089719 0.0129490207426524 0.9996883638212108
0.2125679558049089 0.0549955931682461 0.0113012665742006 0.9995994780188159
0.1987939505662303 0.0562228334050544 0.0090627943384791 0.9994335719246860
0.2208158895680158 0.0537996787180754 0.0125650719521871 0.9996741201451232
0.2083011139745952 0.0553751054877369 0.0106055580247237 0.9994784509713140
0.2144988346727223 0.0548240693124461 0.0116161385062270 0.9996581065908821
0.1974542576995763 0.0563368180424051 0.0088283412203742 0.9994335825120404
0.2249120394136446 0.0530115101852831 0.0131578957978204 0.9996912042434887
0.2427646854941325 0.0495499069006210 0.0157337289748750 0.9990853049888314
0.2313822549984807 0.0517621972100146 0.0140932187606472 0.9996161031184017
0.2373802235687443 0.0505965730314032 0.0149577112617938 0.9992395374990323
0.2100132987850056 0.0552228403518079 0.0108847335818973 0.9994958288691049
0.2231794232569091 0.0533450334240962 0.0129071635531185 0.9996833830750491
0.2039797775035469 0.0557593776739839 0.0099009395627862 0.9994467722782311
0.2167615141158157 0.0545795418813944 0.0119782507514723 0.9996720800050422
0.2265433507149361 0.0526972522647902 0.0133939524178185 0.9996810408502130
0.2270661648380444 0.0525965708523573 0.0134696137263905 0.9996794747653205
0.2174310823962926 0.0544507248818169 0.0120751581611781 0.9996778960253768
0.2193643098130809 0.0540788013484785 0.0123549573700140 0.9996777876889761
0.2381668538047617 0.0504437115400543 0.0150710866159533 0.9991737802951237
0.2306274614887549 0.0519093360460908 0.0139845735647398 0.9996306365423203
0.2153799743540689 0.0547517593818453 0.0117611107861834 0.9996649045635579
0.2120414952123071 0.0550424459982548 0.0112154313972723 0.9995816748499722
0.2920710699377368 0.0445881463014580 0.0205326596911994 0.9986487755199359
0.2867039310884179 0.0446323972120936 0.0202634825066309 0.9987255301665574
0.2811091299394753 0.0446795969798977 0.0199805632460956 0.9991362292937540
0.2833767270278383 0.0446608522452293 0.0200949720508553 0.9990570169870745
0.2793011262551743 0.0446932478654950 0.0198902067979548 0.9991589047181330
0.2449828753868247 0.0491193913542938 0.0160513406992748 0.9990953190467772
0.2787335464130173 0.0446977932249870 0.0198616676819989 0.9991652239291565
0.2544190439643061 0.0472924494219210 0.0173964328302591 0.9992943548422765
0.2688614949684393 0.0449361761812015 0.0192579945072310 0.9992299970532238
0.2610427152509817 0.0460147869575422 0.0183381876211798 0.9992843330525573
0.2806277890993075 0.0446878292038001 0.0199534443064420 0.9991362292937541
0.2588432575047613 0.0464388625212531 0.0180255410268906 0.9992793419321303
0.2536418134105043 0.0474422398385262 0.0172859565755099 0.9992970175231410
0.2659763022402616 0.0451257425905909 0.0190141035190927 0.9992471641177365
0.2820088771023577 0.0446722140418990 0.0200259221596848 0.9991141805565460
0.2833579004825940 0.0446610717655879 0.0200939795403724 0.9990570169870745
0.2622738244401393 0.0457778580012516 0.0185129984268706 0.9992741124805081
0.2540305608690038 0.0473672695412481 0.0173412126417969 0.9992970175231410
0.2863529307034301 0.0446353404987877 0.0202457549339134 0.9987454733362050
0.2692755680149290 0.0449265528228262 0.0192831344197149 0.9992298577723266
0.2745923866884561 0.0448005728107172 0.0196070195788917 0.9992153576913057
0.2712305587276742 0.0448832175020881 0.0194005537621570 0.9992236863611825
0.2522496923582159 0.0477108537330949 0.0170880534906293 0.9992885391446857
0.2825658530310332 0.0446675193830486 0.0200540841334855 0.9990643079694348
0.2647282531621099 0.0453167099721831 0.0188572595031972 0.9992416615057064
0.2596309913113149 0.0462869130122167 0.0181375432301062 0.9992793639107395
0.2544221880718118 0.0472917865300713 0.0173968876440023 0.9992943548422765
0.2725276171374894 0.0448515417344842 0.0194800824946172 0.9992292641218901
0.2752724778885652 0.0447835974276297 0.0196489616832028 0.9992032024421398
0.2770941930523579 0.0447376840894833 0.0197615986983743 0.9991828076114421
0.2684005823836610 0.0449459032784263 0.0192305744850706 0.9992414035074489
0.2515157578668946 0.0478528284206044 0.0169835588905141 0.9992855225105646
0.2742810755356841 0.0448082844952573 0.0195878589718783 0.9992106334781915
0.2658910706751159 0.0451414057446356 0.0190021765462222 0.9992471641177365
0.2661894382679527 0.0450976247009549 0.0190387777957065 0.9992526255807499
0.2531801142843265 0.0475312763708209 0.0172203309327549 0.9992953480696557
0.2948461649322550 0.0445662929384922 0.0206697692686918 0.9987086876278043
0.2595778622203413 0.0462971781194923 0.0181299823541471 0.9992793639107395
0.2466883221251363 0.0487886852394503 0.0162946984770629 0.9991613595021628
0.2680146415987248 0.0449740367674948 0.0191962235014713 0.9992300831260291
0.2765177548980460 0.0447521952103152 0.0197259696243070 0.9991926551049912
0.2625828031808878 0.0457182472849386 0.0185569337686954 0.9992688747876665
0.2443587132456917 0.0492404244747583 0.0159622722821763 0.9990907791641948
0.2735086843595180 0.0448273022233587 0.0195404017997159 0.9992292641218901
0.2479280768464649 0.0485482446158780 0.0164717129939277 0.9992168285932607
0.2756613200279229 0.0447738256806136 0.0196729852376096 0.9991906634192993
0.2607372537288146 0.0460734232253489 0.0182948753691461 0.9992793411245392
0.2453345206353464 0.0490512052075639 0.0161015131449681 0.9991002766899463
0.2864239628853521 0.0446347480922072 0.0202493398290063 0.9987454733362050
0.2897654306466514 0.0446061196949832 0.0204190793479898 0.9986787413159077
0.2939986375785414 0.0445732329427497 0.0206273806684954 0.9986849384893094
0.2909515920802909 0.0445965387490463 0.0204781737081212 0.9986534205048619
0.2606333896512636 0.0460934648115780 0.0182801050613638 0.9992793411245392
0.2872853299926152 0.0446274960143856 0.0202928671118244 0.9987154777160246
0.2902369423764368 0.0446016177020548 0.0204439409614740 0.9986708960210100
0.2440907316250318 0.0492923108124257 0.0159242897830926 0.9990870648625138
0.2346074146712622 0.0511353011105600 0.0145580123663595 0.9994442328139967
0.2124639783080897 0.0550048636081757 0.0112843162272368 0.9995994780188157
0.2241203977231320 0.0531640934152147 0.0130433683508005 0.9996897635972961
0.2242155358283566 0.0531458430842808 0.0130571466311394 0.9996897635972961
0.2281779562765721 0.0523824876046885 0.0136305187980481 0.9996723624289756
0.2205028838163612 0.0538598650483431 0.0125197645620355 0.9996790656834342
0.2162169899618651 0.0546842726165012 0.0118994357564078 0.9996712089720722
0.2437754584935530 0.0493533686818908 0.0158795554341059 0.9990847925766573
0.2849264302085524 0.0446476721737668 0.0201734114666089 0.9989094784727643
0.2776412513609466 0.0447065929596060 0.0198067102059287 0.9991713862782471
0.2631521719787215 0.0456086175171426 0.0186377981089098 0.9992739151424510
0.2639129865799121 0.0454614726024439 0.0187461510439065 0.9992634745940161
0.2526048468191137 0.0476422230378500 0.0171385617015152 0.9992885391446857
0.2583501950944893 0.0465340082075158 0.0179554230400072 0.9992742216590103
0.2506360773774963 0.0480230933148293 0.0168582540444653 0.9992764464818974
0.2698590859159880 0.0449150062872611 0.0193174518591859 0.9992239401964216
0.2544528772287361 0.0472858746643020 0.0174012500427581 0.9992943548422765
0.2588463157835189 0.0464382708664783 0.0180259765085708 0.9992793419321303
0.3227090354255643 0.0443150567619742 0.0209971586605022 0.9986644601098176
0.3307111634432474 0.0441313305508875 0.0201622882601524 0.9986320055685660
0.3368145773415164 0.0439920766858644 0.0195285902071145 0.9986151498328738
0.3503517045160944 0.0436537025619884 0.0176917396778342 0.9990112743317184
0.3368393025951886 0.0439915467145659 0.0195259984056644 0.9986151498328738
0.3449563057107985 0.0437958640303209 0.0186751117543263 0.9985947803755628
0.3455583163482783 0.0437813498658757 0.0186120941530999 0.9986244584844459
0.3435604938345749 0.0438295094418495 0.0188208137607625 0.9985618561246747
0.3687133497736161 0.0431256058293552 0.0124358487525374 0.9991097028818087
0.3689034424732368 0.0431199399296236 0.0123837764340610 0.9991097028818087
0.3776345932804880 0.0429353167326762 0.0091564240105382 0.9978571005651384
0.3879526446447361 0.0427271186613757 0.0051159705130988 0.9982031049559594
0.3708758813925682 0.0430736534872503 0.0117109013630083 0.9990641657796446
0.3760290151738133 0.0429679205701812 0.0097806729513253 0.9981458699837821
0.3878253912148921 0.0427296592983181 0.0051665276769458 0.9982031049559594
0.3736509019154568 0.0430166306858843 0.0106779167486368 0.9985779253460608
0.3794484243896935 0.0428984065015898 0.0084558116739352 0.9980645080411297
0.4044429332051967 0.0423981375161679 -0.0016202955881538 0.9981172922032586
0.3949010099467158 0.0425884085383942 0.0023515822478960 0.9981364930352726
0.3578190716251241 0.0434388671266480 0.0155546682189666 0.9991422239015969
0.3661443496157990 0.0431997713732587 0.0131684488192884 0.9991518887450720
0.4000024147561786 0.0424871553585512 0.0002283373207492 0.9981166163895202
0.3584051554704922 0.0434220389414853 0.0153869268353627 0.9991422239015969
0.3921016524525099 0.0426443046750409 0.0034657392831324 0.9981318021411696
0.3800111961064503 0.0428869589022920 0.0082382575392000 0.9981038244682384
0.3919987986844841 0.0426463578422207 0.0035066792293189 0.9981508928791352
0.3862541694092920 0.0427610922229858 0.0057893045586005 0.9982338990263101
0.3869257990676054 0.0427476559355756 0.0055231016213278 0.9982338990263099
0.3653933635207390 0.0432212655022730 0.0133845286690731 0.9991530583184751
0.3952078294894505 0.0425823002939326 0.0022248616216548 0.9981561040798320
0.3821070485006335 0.0428443678806700 0.0074247618073730 0.9981748381684935
0.3625870157838184 0.0433019161540707 0.0141884455635308 0.9991522136516472
0.3722996351483018 0.0430443794902234 0.0111811332244129 0.9989533984627610
0.3568118475971113 0.0434677785976120 0.0158428979824235 0.9991047532821747
0.3901644908297398 0.0426829729501478 0.0042366152797844 0.9981877904331886
0.3770332453066398 0.0429475380521017 0.0093896501989120 0.9979706677182022
0.3816111801659192 0.0428544732262071 0.0076165957801115 0.9981610923728111
0.3646496160108407 0.0432426760515655 0.0135972422350599 0.9991510476887787
0.3709501469584528 0.0430722334590849 0.0116821744084996 0.9990334966367831
0.3524989618021461 0.0435919572140581 0.0170792357263996 0.9990611399176027
0.3584597215184515 0.0434204727880705 0.0153713030554880 0.9991422239015969
0.3959970172408618 0.0425665766153960 0.0018986916704397 0.9981430740939454
0.3909116947672930 0.0426680595458254 0.0039391020731038 0.9981692611025594
0.3877283753079967 0.0427315985671245 0.0052050188587627 0.9982031049559594
0.3940981814283486 0.0426044376617440 0.0026718251665462 0.9981341867942136
0.3873596185610674 0.0427389755673384 0.0053511879495489 0.9982017294874278
0.3821200259139270 0.0428441022667116 0.0074197810750451 0.9981748381684935
0.3761342795753705 0.0429657839103992 0.0097397111568727 0.9981458699837821
0.4006531170948484 0.0424743261374111 -0.0000432404330117 0.9981285760137887
0.4013856999905806 0.0424582740004637 -0.0003442742427397 0.9981071891659766
0.3958814047313745 0.0425688547272539 0.0019470880061411 0.9981231096557693
0.3034960377544332 0.0445212540284244 0.0210522150756340 0.9993166573796207
0.3258239517917275 0.0442434387540548 0.0206708227751827 0.9986498294398940
0.3289736148554400 0.0441712123486269 0.0203429466351534 0.9986335780628325
0.3137668926053028 0.0444679039730198 0.0215050033175673 0.9992274542372561
0.2932780342141293 0.0445790621082510 0.0205914731162129 0.9986766549962683
0.2948346647298651 0.0445659665904461 0.0206700318032126 0.9987086876278043
0.3315493417096966 0.0441120720973803 0.0200751400935561 0.9986446687223501
0.3085904600619142 0.0444948031231265 0.0212773886335942 0.9993493733261217
0.3206697642438002 0.0443641219391782 0.0212339880383633 0.9987362984292498
0.3000111541468873 0.0445394306294473 0.0208980402978557 0.9990888798689666
0.3407615614690161 0.0438970423965854 0.0191139887347081 0.9985554122866229
0.3078309777240604 0.0444987489548691 0.0212439480775289 0.9993535332119967
0.3231568753610069 0.0443044074651197 0.0209469300464071 0.9986513025024050
0.3245814016239371 0.0442719772354823 0.0208001979594774 0.9986414771420877
0.2981296444028618 0.0445494055352036 0.0208145060224500 0.9989660938927090
0.3384325871402908 0.0439533763722902 0.0193590993612299 0.9985937811270392
0.2986625949250264 0.0445465794482552 0.0208381689628423 0.9990446912123118
0.3131345789441054 0.0444711486881857 0.0214768805966332 0.9992686526099729
0.3142476664848497 0.0444654299880881 0.0215263265705130 0.9992206674960986
0.3012089973230637 0.0445331271979820 0.0209511321377867 0.9992086050780065
0.3479485033683021 0.0437237211314656 0.0183618790105531 0.9987871146031602
0.3208283653888094 0.0443602836913984 0.0212154022270904 0.9987314183577088
0.3081231041730388 0.0444972326525086 0.0212568268253597 0.9993567322047910
0.3094150828671501 0.0444905179166831 0.0213136968040462 0.9993430661611911
0.3353360409056000 0.0440257213262273 0.0196820880498923 0.9986139338709291
0.3299187728281775 0.0441495209141218 0.0202446624737689 0.9986463134210604
0.3358321068690103 0.0440144981893844 0.0196306966183023 0.9986004179242854
0.3291338120742227 0.0441675364603816 0.0203262711722906 0.9986466469658790
0.3415557826428900 0.0438778851920674 0.0190301577329653 0.9985619565397956
0.3158140448763682 0.0444575926853338 0.0215977065581020 0.9991432341125067
0.3490269444967928 0.0436918727941478 0.0180725713941410 0.9989040874630259
0.3518875997385913 0.0436095331064657 0.0172534662071187 0.9990386918509492
0.4065941654517113 0.0426209271014356 -0.0032832197406092 0.9980848874077844
0.4086592474642453 0.0428443256292463 -0.0049036061692365 0.9980411597050213
0.4038440609235385 0.0424062185529244 -0.0013598512952127 0.9981353723485225
0.4138022800574336 0.0433493421849547 -0.0088030968547686 0.9979684576660210
0.4226547705296422 0.0442559833341584 -0.0155022574020865 0.9975870390255048
0.4059485838363558 0.0425521920501005 -0.0027791917967552 0.9980834057117869
0.4062208042745943 0.0425808946362565 -0.0029909843608434 0.9980834057117871
0.4255201116554604 0.0445531155334562 -0.0176649858603665 0.9975338165850948
0.4173974635157005 0.0437109251261815 -0.0115336664745807 0.9977690864735027
0.4218428870854722 0.0441718031132010 -0.0148894865568176 0.9976803752727165
0.4233639375996346 0.0443294551020487 -0.0160375984098845 0.9975547692210832
0.4186475233467444 0.0438392608240954 -0.0124793081656612 0.9977378270683754
0.4068407288061587 0.0426472276005683 -0.0034758875300295 0.9980627659236554
0.4066405235596547 0.0426254723259934 -0.0033183828663250 0.9980848874077844
0.4100088281003099 0.0429735659944964 -0.0059203953936912 0.9980423488243977
0.4112619936445842 0.0430971819532112 -0.0068724098870771 0.9979935465074588
0.4210322729483383 0.0440881358617436 -0.0142770923390557 0.9977707095873819
0.4013526488925040 0.0424581592753103 -0.0003282526074492 0.9981071891659766
0.4273412275314761 0.0447421214719482 -0.0190393035706387 0.9976241751502491
0.4106973123880396 0.0430413329209632 -0.0064432599281979 0.9980181343557948
0.4156520823584496 0.0435338231834575 -0.0102101666507370 0.9978875649576787
0.4032533270158179 0.0424182863312652 -0.0011145224909547 0.9981301888220467
0.4128547089863049 0.0432550944404295 -0.0080828576774953 0.9979419494842440
0.4171684515600950 0.0436847933088443 -0.0113642711924891 0.9977690864735029
0.3156143466239170 0.0444585521994355 0.0215882702355493 0.9991432341125067
0.2973459885500011 0.0445537512815715 0.0207793461002870 0.9988730774480679
0.3099728930446194 0.0444876156803064 0.0213382251061364 0.9993396347909175
0.3390183861261639 0.0439391519492887 0.0192974053203487 0.9985937811270392
0.3422669162287173 0.0438607266376347 0.0189562152964806 0.9985639068912916
0.3010467678738006 0.0445339765842970 0.0209439500218332 0.9991889137162719
0.3455575364341089 0.0437813760620155 0.0186124376230672 0.9986244584844459
0.3180093772970026 0.0444271862281710 0.0215335272368143 0.9988666069299362
0.3229721856739808 0.0443088134928838 0.0209676631002327 0.9986513025024049
0.3168693235142507 0.0444524210701100 0.0216467160447863 0.9990095459736812
0.3240966108021847 0.0442830104212600 0.0208501887154563 0.9986414771420877
0.3488490493080326 0.0436970034403756 0.0181240173367682 0.9988936569992692
0.3078946912583675 0.0444984229713319 0.0212467885916140 0.9993535332119967
0.3481800908903013 0.0437168496185471 0.0183109069313844 0.9987871146031602
0.3014705891426094 0.0445317632583275 0.0209627035117658 0.9992281198823790
0.3377979800510341 0.0439684863775191 0.0194255145970005 0.9986099623990198
0.3359491159191256 0.0440118358995233 0.0196185534282842 0.9986080501098268
0.3294100685300336 0.0441611983045240 0.0202975566205602 0.9986332958739116
0.3078495833339291 0.0444986519553634 0.0212447715978454 0.9993535332119967
0.3056378384916382 0.0445101411094727 0.0211469228146569 0.9993467518211088
0.2967371240855136 0.0445572129279161 0.0207518627852134 0.9988541290452643
0.3437763413170478 0.0438243204886800 0.0187989551925173 0.9985618561246750
0.3169711788267739 0.0444519161424266 0.0216513958438799 0.9990000965768586
0.3435704069678948 0.0438292890779017 0.0188204952308420 0.9985618561246747
0.3398500530729595 0.0439190244255001 0.0192099156641443 0.9985658812506780
0.3272902127838523 0.0442098149396506 0.0205182280564585 0.9986469229412768
0.3248107822909339 0.0442667210318820 0.0207763960127599 0.9986414771420877
0.3335098505656771 0.0440670513615499 0.0198713250820527 0.9986003017884371
0.3141206352958513 0.0444658656028663 0.0215188196114781 0.9992206674960986
0.3246340285862118 0.0442707763677641 0.0207947501324904 0.9986414771420877
0.3023242107227210 0.0445273151501049 0.0210004582374885 0.9992773923949161
0.3109385195045591 0.0444825973416099 0.0213807131949326 0.9993283790600765
0.2928391138507743 0.0445823452669870 0.0205701250907077 0.9986766390077139
0.3206107264176550 0.0443655253249078 0.0212406900916827 0.9987362984292498
0.3112207012081588 0.0444811390732448 0.0213931846103127 0.9993283790600765
0.3107447258122139 0.0444836085594943 0.0213722228354948 0.9993333617234714
0.3112723759705600 0.0444808448962866 0.0213952403984067 0.9993232380265764
0.3347744702428097 0.0440384345213409 0.0197402906693079 0.9985943864961512
0.3159496122719249 0.0444569192452253 0.0216039257989290 0.9991432341125067
0.2982475224561901 0.0445487873797399 0.0208197255572592 0.9990058337452463
0.3172364900502059 0.0444456239994250 0.0216215299157233 0.9988666069299361
0.3334847263570770 0.0440675923089127 0.0198738990490937 0.9986003017884371
0.2999918359492614 0.0445395181755833 0.0208972120795865 0.9990888798689666
0.3340803550578879 0.0440541591189950 0.0198122315136769 0.9986112426342433
0.3225521648989129 0.0443188025782732 0.0210151015490502 0.9986644601098176
0.3247294130755392 0.0442685899784419 0.0207848442077729 0.9986414771420877
0.3064690877548403 0.0445058230381535 0.0211836958212664 0.9993503006240191
0.3474443283841149 0.0437358712208299 0.0184145016165425 0.9986980479885297
0.3385478176418550 0.0439506001511512 0.0193469954806298 0.9985937811270392
0.3671548906492651 0.0431705448748361 0.0128809437008478 0.9991361286054086
0.3789536637497687 0.0429084745564661 0.0086468675657541 0.9979881078985696
0.3505617526415101 0.0436476695416747 0.0176321164719633 0.9990112743317184
0.3727631493509777 0.0430349166419382 0.0110081108242388 0.9989491093498205
0.3611759862679067 0.0433424370902559 0.0145929482589080 0.9991524992546472
0.3619357416045987 0.0433206139022388 0.0143751950775047 0.9991524184184656
0.3833061284088810 0.0428200546694194 0.0069581078415613 0.9981935127600604
0.3617811205335500 0.0433250547797502 0.0144195147893452 0.9991445302487688
0.3487981896077209 0.0436985154644502 0.0181387736001907 0.9988936569992692
0.3801879653569052 0.0428833647802222 0.0081698418272251 0.9981038244682384
0.3530513175640196 0.0435760528131117 0.0169205996705440 0.9990888839269779
0.3555931460990055 0.0435028842034784 0.0161920150324105 0.9991036490248324
0.3695768371914451 0.0431003499191010 0.0121941930507391 0.9991019319494699
0.3606285685268328 0.0433581629579142 0.0147498247464882 0.9991599689009508
0.3572876429873586 0.0434541287178457 0.0157067661120492 0.9991223469464379
0.3747183895514474 0.0429946806075207 0.0102805595883345 0.9984422269295001
0.3714067403870829 0.0430627238211716 0.0115134897081050 0.9990334966367831
0.3568404769552083 0.0434669543266108 0.0158346982573739 0.9991047532821747
0.3685072753746602 0.0431316862681190 0.0124932487256585 0.9991120287985753
0.3526897143538892 0.0435864669474892 0.0170245637966111 0.9990803039530550
0.3548337928252517 0.0435247502392899 0.0164095129258317 0.9991036490248324
0.3750748209813400 0.0429873549203272 0.0101479250773289 0.9982657581481341
0.3577577997196398 0.0434406278581930 0.0155722087513961 0.9991422239015969
0.3673167873139322 0.0431658991311252 0.0128344756861414 0.9991280873664493
0.3720383493272739 0.0430497516560503 0.0112784225380427 0.9989533984627609
0.3654535338176734 0.0432195385835213 0.0133672617608635 0.9991450215349237
0.3522708112493659 0.0435985163759749 0.0171442711077895 0.9990386918509493
0.3638973559834395 0.0432643171667905 0.0138124978447709 0.9991440798575046
0.3850946985115877 0.0427842851337499 0.0062489280180270 0.9982241869433333
0.3891129809745175 0.0427039532412396 0.0046550278148730 0.9981302047534673
0.3774325817244445 0.0429394326285984 0.0092341376923379 0.9978895013326470
0.3899841899522504 0.0426865708168870 0.0043083773103512 0.9981877904331884
0.3984173116273064 0.0425189397503231 0.0008883459233122 0.9981166949824299
0.3803935545081409 0.0428791915499086 0.0080899590732067 0.9981038244682384
0.3948125024296196 0.0425901762270398 0.0023878025732469 0.9981364930352726
0.3661407090724476 0.0431997613058075 0.0131707251944444 0.9991518887450720
0.3890360201670858 0.0427054808130432 0.0046857768943686 0.9981302047534671
0.3958180154897968 0.0425701477210684 0.0019734210295772 0.9981231096557693
0.3694789665056475 0.0431030637825135 0.0122227538874100 0.9991019319494699
0.3830053346430657 0.0428261046127863 0.0070771534403978 0.9981951272626201
0.3754343193613609 0.0429799911375977 0.0100119323500359 0.9981408398799471
0.3874915891689902 0.0427363369439687 0.0052988380032436 0.9982017294874278
0.2903332812436522 0.0446010354909724 0.0204483531397610 0.9986708960210098
0.3021256627397272 0.0445283454539343 0.0209916845291816 0.9992773923949161
0.4028820133793916 0.0424260754664309 -0.0009609151238545 0.9981081911473512
0.4027714048261873 0.0424284634602401 -0.0009153543657491 0.9981081911473512
0.4033400928812837 0.0424165130765472 -0.0011505536970336 0.9981301888220467
0.4059534690150048 0.0425526961008638 -0.0027829627216634 0.9980834057117869
-0.0231014289227823 -0.0411751069505497 -0.7172652912485923 0.9999124239127545
-0.0249655956089965 -0.0446905907914069 -0.7205091287531912 0.9999011647646611
-0.0250297798146019 -0.0448115515226666 -0.7206206907403688 0.9999011647646611
-0.0238760392433179 -0.0426358438384239 -0.7186131340650663 0.9999071480571796
-0.0241330090932411 -0.0431204236547953 -0.7190602561358955 0.9999042517574217
-0.0256602198151494 -0.0459999859678953 -0.7217169918844036 0.9998943554245819
-0.0254235004753692 -0.0455537260752275 -0.7213053099495742 0.9999011647646611
-0.0259947399515164 -0.0466305758308428 -0.7222987072405120 0.9998943554245819
-0.0263662792581643 -0.0473308379091070 -0.7229446396455396 0.9998943554245819
-0.0201713023502251 -0.0356463065888410 -0.7121617448203098 0.9999162238583273
-0.0217728317647221 -0.0386702401551254 -0.7149543844873261 0.9999164301273703
-0.0193383850304726 -0.0341310828447436 -0.7107993434867618 0.9999162238583276
-0.0168160778039249 -0.0297569774289917 -0.7070075990143565 0.9999215702268407
-0.0184103100514473 -0.0325330876409163 -0.7094180394361274 0.9999196932899469
-0.0212346816577047 -0.0376524180291635 -0.7140133226586158 0.9999164301273705
-0.0207691671094832 -0.0367756258393453 -0.7132049587936052 0.9999164301273703
-0.0226871776393445 -0.0403939273462111 -0.7165444882269072 0.9999124239127545
-0.0167385039109368 -0.0296216899489390 -0.7068899921984924 0.9999215702268409
-0.0149617027707575 -0.0265255405937549 -0.7041991465286996 0.9999233895493764
-0.0116854374207988 -0.0208148400606794 -0.6992409880372414 0.9999109653359624
-0.0134076735199797 -0.0238149238201116 -0.7018450372932126 0.9999196491080927
-0.0191144334132598 -0.0337436210106157 -0.7104634073770405 0.9999162238583276
-0.0108624866352993 -0.0193788964778623 -0.6979944744262127 0.9999109706639618
-0.0228387664256887 -0.0406794116054161 -0.7168076715098407 0.9999124239127545
-0.0236705396017002 -0.0422484135071618 -0.7182557063715380 0.9999071480571796
-0.0199557347918996 -0.0352392672685026 -0.7117858776766903 0.9999162238583273
-0.0172320582778021 -0.0304809391542859 -0.7076361100051362 0.9999215702268407
-0.0183118231227951 -0.0323595444327990 -0.7092659745952422 0.9999196932899469
-0.0211521447497721 -0.0375020765947674 -0.7138779244782310 0.9999164301273703
-0.0195733485698281 -0.0345192745947308 -0.7111220776135578 0.9999162238583273
-0.0112814454589735 -0.0201103844001346 -0.6986295104982836 0.9999109706639618
-0.0126734272627926 -0.0225356626165133 -0.7007345229457697 0.9999133065715418
-0.0187067979557844 -0.0330420049527649 -0.7098568370775712 0.9999178813941756
-0.0133945292191943 -0.0237915210055161 -0.7018245816796604 0.9999196491080927
-0.0149333482123454 -0.0264762025644659 -0.7041563417704910 0.9999233895493764
0.0205095652991264 0.0350539165309736 -0.6522628103133078 0.9675083222270957
0.0187937332823632 0.0307807114111604 -0.6547973573118764 0.9654140278106831
0.0205116039250286 0.0350435633841912 -0.6523307001939185 0.9675083222270957
-0.0095784745453184 -0.0171374713990688 -0.6960486503933010 0.9999033535058902
-0.0077828665788138 -0.0140193390250015 -0.6933420465639227 0.9999042591315930
0.0055125058270427 0.0081259241456779 -0.6741865354903035 0.9999597467396291
0.0105309034104177 0.0165157674950116 -0.6669557792706524 0.9580762831842569
0.0015715062769225 0.0015564618746191 -0.6798666789715652 0.9999859011811044
-0.0062800869054301 -0.0115398735942924 -0.6911988465365809 0.9999732642149272
-0.0049052580474356 -0.0092478827309955 -0.6892157606265430 0.9999891963126686
-0.0093392637560890 -0.0167208005041128 -0.6956869605718592 0.9999033535058902
0.0018003968263135 0.0019379874516461 -0.6795367785536158 0.9999859011811044
0.0043522456418157 0.0061916628596756 -0.6758574505117017 0.9999534348918168
0.0109896081188535 0.0172802053979557 -0.6662953629761069 0.9593687624939755
-0.0057826906037057 -0.0107061944988217 -0.6904772084403451 0.9999797581089849
-0.0019422526507011 -0.0043107668103899 -0.6849441477598206 0.9999884454469974
0.0074605924759474 0.0113747875931968 -0.6713825266300826 0.9994485665042410
-0.0029851232984541 -0.0060508525613477 -0.6864498835114401 0.9999894508248173
0.0153190451142211 0.0244902007959924 -0.6599279696267905 0.9642623254146128
-0.0078045160077495 -0.0140577945525699 -0.6933754985024723 0.9999042591315930
-0.1270955885681090 0.1406267577190634 -0.6349097226406261 0.9999927441225807
-0.1293334285842098 0.1408282699849046 -0.6409422677784320 0.9999944392240426
-0.1278749308286228 0.1406970238525440 -0.6370103706148803 0.9999934304426004
-0.1274730624574782 0.1406607840754339 -0.6359271878959453 0.9999934304426004
-0.1286310375737023 0.1407652970805371 -0.6390481290948616 0.9999939540833012
-0.1289401056114176 0.1407930247513509 -0.6398815469432005 0.9999939540833012
-0.1287653420765435 0.1407773586238444 -0.6394102560234400 0.9999939540833012
-0.1285662865865576 0.1407594566604045 -0.6388736047144572 0.9999939540833012
-0.1262923797726982 0.1405543572308725 -0.6327446999398733 0.9999926190258061
-0.1207563324671554 0.1400621136694540 -0.6178052040932621 0.9999893108706566
-0.1236893631729398 0.1403205068412489 -0.6257263389131769 0.9999932971405916
-0.1260622622561444 0.1405336064766060 -0.6321244466045920 0.9999926190258063
-0.1185060759485308 0.1398357402413081 -0.6117993133306896 0.9999598305505144
-0.1161032513500777 0.1395511070677136 -0.6054954243605704 0.9999294775756422
-0.1250170937783358 0.1404393815879728 -0.6293072659852540 0.9999928711668966
-0.1222580555419703 0.1401932176821316 -0.6218638844414853 0.9999931379553837
-0.1137569452863937 0.1392450632250000 -0.5994125163792915 0.9991125306271487
-0.1206925353156076 0.1400552933784553 -0.6176359508598626 0.9999893108706566
-0.1210266040795273 0.1400854905377482 -0.6185362163410756 0.9999911989982809
-0.1183480922664865 0.1398198711626689 -0.6113775971564666 0.9999585366961461
-0.1179317203195318 0.1397701474294435 -0.6102862478566327 0.9999578218872045
-0.1245284439011432 0.1403957200522591 -0.6279891389134232 0.9999930099587544
-0.1226463178975700 0.1402276881285936 -0.6229117779017065 0.9999934009238525
-0.1234136356413912 0.1402957078955608 -0.6249829790330073 0.9999932971405916
-0.1197069832482213 0.1399559893215924 -0.6150059367099374 0.9999752210517807
-0.1197736343071834 0.1399627449498005 -0.6151836982718047 0.9999812825294263
-0.1160721901927492 0.1395476536058926 -0.6054133505787139 0.9999294775756422
-0.1228447677292222 0.1402452029731614 -0.6234476435749920 0.9999934009238525
-0.1137044881653163 0.1392344029300289 -0.5992861517793205 0.9989841612202370
-0.1092164542821276 0.1386390557667329 -0.5876739782494904 0.9984557850211091
-0.1109451689208236 0.1388692078029640 -0.5921452276283414 0.9984868212432089
-0.1060129224023682 0.1380574169802348 -0.5797874287205783 0.9983006034796945
-0.1112230906708892 0.1389059778197898 -0.5928646032403669 0.9984868212432089
-0.1069133374862058 0.1382393604195264 -0.5819564653002841 0.9983674471037662
-0.1171678669126052 0.1396789000653992 -0.6082841861700157 0.9999480740834354
-0.1160290116255985 0.1395420996560358 -0.6053012005905855 0.9999294775756422
-0.1249807538194658 0.1404360968462025 -0.6292093361293505 0.9999930099587544
-0.1111002355408120 0.1388897996936260 -0.5925464354225769 0.9984868212432088
-0.1264968572058407 0.1405727947731023 -0.6332958464457393 0.9999926190258061
-0.1207945386813838 0.1400654964075022 -0.6179083435534722 0.9999893108706566
-0.1187518413169473 0.1398591947492792 -0.6124584851325884 0.9999598305505143
-0.1217478533643834 0.1401481232999467 -0.6204863713229315 0.9999931379553837
-0.1170616027307761 0.1396661367414208 -0.6080058460494151 0.9999480740834354
-0.1249116491004386 0.1404300143021411 -0.6290226926263940 0.9999930099587546
-0.1131963196809904 0.1391680631852902 -0.5979687502803235 0.9987101644115305
-0.1192634670326769 0.1399109888555491 -0.6138231762369317 0.9999620274607204
-0.1137711608666942 0.1392469608165558 -0.5994492661688801 0.9991125306271487
-0.1153176886773891 0.1394499420483452 -0.6034553912624763 0.9999051028864184
-0.1155403668975667 0.1394791698881502 -0.6040322137034100 0.9999051028864183
-0.1099675528370982 0.1387363326165847 -0.5896240891408013 0.9985054650934477
-0.1130438239337253 0.1391477194175338 -0.5975745182622857 0.9986264748180370
-0.1118092440223843 0.1389834578299146 -0.5943817618685677 0.9985295934179094
-0.1108864721803237 0.1388612331177517 -0.5919938571645624 0.9984868212432089
-0.1048261475590150 0.1378171937024383 -0.5769302295024126 0.9981971523141212
-0.1026604435668651 0.1373913839233298 -0.5716796762065015 0.9977857490689763
-0.1081862282814829 0.1385025171701103 -0.5850076360257069 0.9984290645227998
-0.1045510715687166 0.1377620101373561 -0.5762665967037717 0.9981971523141211
-0.1094662802999455 0.1386719072862052 -0.5883212677944014 0.9985049072383887
-0.1027898215935219 0.1374150564458510 -0.5719983630707451 0.9977857490689763
-0.1082895014502952 0.1385148420680178 -0.5852783156810757 0.9984546035551575
-0.1099073523850363 0.1387282352012627 -0.5894686135369455 0.9985054650934477
-0.1081733936534584 0.1384999224206757 -0.5849767162731115 0.9984290645227998
-0.1055015393954983 0.1379538260377318 -0.5785563760220066 0.9982933073523412
-0.0872442329416847 0.1294401105541912 -0.5496442694849882 0.9971421733297804
-0.0907724387672876 0.1314001026078701 -0.5539836889783847 0.9972391922774698
-0.1016657973904776 0.1370046978861684 -0.5698237342287957 0.9977343502681981
-0.0948266731252522 0.1335076893435522 -0.5598236040774727 0.9975056141385954
-0.0985129506171208 0.1354407264584153 -0.5650520997349865 0.9977220682676793
-0.0958648309778219 0.1340541092959422 -0.5612844703462813 0.9976266735226712
-0.0887492826041228 0.1302832452575955 -0.5514477765526061 0.9970896188004429
-0.1006951324276154 0.1365769298302251 -0.5681761979471937 0.9976922424328215
-0.1013509479366111 0.1368734019664190 -0.5692649601878874 0.9977300628619528
-0.0904332441730149 0.1312127186312934 -0.5535593200478354 0.9972391922774698
-0.1057428111286338 0.1380027197063523 -0.5791370974651573 0.9982933073523412
-0.0922190800033270 0.1321529527146998 -0.5560642212144150 0.9972331001470131
-0.0984677009761789 0.1354170815356022 -0.5649875117503088 0.9977220682676793
-0.0954835831708070 0.1338537100115661 -0.5607464051210680 0.9975467762458922
-0.0866393233727557 0.1290739000643580 -0.5490992936776268 0.9971154309043073
-0.1034609159029378 0.1375476408617589 -0.5736237723709207 0.9977773870667369
-0.0898130777386495 0.1308703774175391 -0.5527819306221340 0.9971917435969372
-0.0768237024193134 0.1231249230888970 -0.5403359304348696 0.9985632394789694
-0.0961739924905253 0.1342157673035067 -0.5617249739856340 0.9976266735226712
-0.0909528900736516 0.1314942846098614 -0.5542417993046348 0.9972032148380204
-0.1026427584183863 0.1373854559853534 -0.5716439362910753 0.9977857490689763
-0.0773546725842448 0.1234539806932375 -0.5407446682700671 0.9985632394789694
-0.0809755167932579 0.1256443405498252 -0.5440139760027899 0.9984743248516912
-0.0734972776792069 0.1210708272296130 -0.5376969959509751 0.9984751668491249
-0.0841412938397261 0.1275614934072204 -0.5468540466194818 0.9976839768737285
-0.0829296329139182 0.1268277563431712 -0.5457662787685225 0.9979720229806058
-0.1056371865814135 0.1379813476962853 -0.5788827584276913 0.9982933073523412
-0.1014579611580567 0.1369226831660094 -0.5694396084717310 0.9977300628619528
-0.0795036222541303 0.1247544916904709 -0.5426805026750787 0.9985067797384443
-0.1083828644676711 0.1385259618347217 -0.5855231348550345 0.9984793216539324
-0.0848849137198617 0.1280117979859762 -0.5475217605863868 0.9971557534006570
-0.0964463941174134 0.1343581688907075 -0.5621133057349449 0.9976266735226712
-0.1024875622956708 0.1373272607048887 -0.5713482364906387 0.9977857490689763
-0.0886746288619339 0.1302420555003347 -0.5513540601466770 0.9970896188004429
-0.1030238165422609 0.1374617927193351 -0.5725636641806173 0.9977773870667371
-0.1033763237256861 0.1375310725558387 -0.5734184803444133 0.9977773870667371
-0.0907507387186020 0.1313880535756935 -0.5539569206556347 0.9972391922774698
-0.1001718189323566 0.1363043109235826 -0.5674274451092050 0.9976531386213691
-0.1017162312559019 0.1370244860471945 -0.5699173217621153 0.9978062054316890
-0.1039452024528657 0.1376417376971460 -0.5748012144668491 0.9978835387195225
-0.0937978935542520 0.1329731187860486 -0.5583420716123088 0.9973896837443863
-0.0875327591036678 0.1296120686182940 -0.5499203864314095 0.9971421733297804
-0.0782937051686941 0.1240224793733663 -0.5415888810745013 0.9985320063174932
-0.1072844025166021 0.1383162724477846 -0.5828454217732199 0.9984211256552510
-0.0671012590204851 0.1170246654161598 -0.5339917740763281 0.9985809713459012
-0.0804181772477588 0.1253055345712620 -0.5435263710466652 0.9984743248516913
-0.0743173321963337 0.1215795948949439 -0.5383293185299791 0.9984397119088959
-0.0651054208148782 0.1157738172822910 -0.5329270011425415 0.9987011375721999
-0.0602965500647066 0.1126662405686209 -0.5305677690628907 0.9993317603720172
-0.0694419388382857 0.1184921251810974 -0.5352408408676708 0.9985217990337530
-0.0649131040941024 0.1156496799295949 -0.5328322108656205 0.9987011375721998
-0.0899501694443477 0.1309460835839077 -0.5529535859814269 0.9971917435969372
-0.0724089350076190 0.1203787417624004 -0.5370351035743579 0.9984770801822965
-0.0874568540752388 0.1295695485526670 -0.5498294394706718 0.9971421733297804
-0.0737183269724691 0.1212102224899760 -0.5378501154915024 0.9984751668491249
-0.0689901468639113 0.1182085354338431 -0.5349997433323294 0.9985254113159392
-0.0143761065515880 0.0822862013313521 -0.5074310954676780 0.9209813095252357
-0.0384297678544903 0.0985494892337192 -0.5196233767575210 0.9771272722158796
-0.0609568461505347 0.1130918606361695 -0.5308980719525548 0.9993246142483466
-0.0453562876580646 0.1030112695152935 -0.5230868003916873 0.9981935443913406
-0.0550856565969760 0.1093030842169757 -0.5279602718026293 0.9992698545587634
-0.0469305145839115 0.1040340747609024 -0.5238758678019374 0.9983613221569764
-0.0273543038582505 0.0917109719580903 -0.5140779271838176 0.9114465410310852
-0.0211504245816675 0.0869719781563737 -0.5107431435827195 0.9123183367554644
-0.0583998736094556 0.1114430496853349 -0.5296196913380292 0.9993198365993133
-0.0289626500691587 0.0925201103860888 -0.5148721713108665 0.9114585614302515
-0.0512531886979131 0.1068274508961759 -0.5260402860697220 0.9983559189136633
-0.0556719933928294 0.1096818616721956 -0.5282540550186325 0.9992832254989944
-0.0363140176759108 0.0971987241519292 -0.5185641098886086 0.9679819325553197
-0.0496266961814109 0.1057773630953742 -0.5252258795878738 0.9981548880473327
-0.0532280116148168 0.1081027451090330 -0.5270296087071665 0.9991245895139375
-0.0422207536633616 0.1009869299797962 -0.5215176079204803 0.9980200300314821
-0.0265412960501380 0.0906496963220872 -0.5136256757600220 0.9130499088325109
0.0199887796748642 0.0526378333275552 -0.5133767205926354 0.9317183013555720
0.0069255015843390 0.0654530543463068 -0.5071384526466199 0.8983663142302822
0.0090866073301597 0.0635109716960776 -0.5077605392002030 0.8999966106385068
-0.0004123855161149 0.0717423029740480 -0.5048657461547018 0.8879355074391105
-0.0144200516164079 0.0823950621725695 -0.5070744976614564 0.9209813095252357
-0.0080254362563008 0.0779144664682566 -0.5042244012729298 0.9147361709958102
0.0192334615877579 0.0517799582081745 -0.5142344178173204 0.9305204773881394
-0.0060280533798728 0.0764263698631253 -0.5037601833489967 0.9127113908164374
0.0139747902073972 0.0587630711482445 -0.5092454737757721 0.9180645847216797
0.0090859098075394 0.0635127271599955 -0.5077719048428382 0.8999966106385068
-0.0078810614926779 0.0777730239646655 -0.5043541060779844 0.9147361709958102
0.0117099163164634 0.0609846883477739 -0.5085668094222234 0.9134919598526339
0.0142129168641608 0.0585271671917502 -0.5093210594941221 0.9180645847216797
0.0011233484182934 0.0703817900927095 -0.5055516694409650 0.8937309457079522
-0.0135344935356343 0.0817275355662656 -0.5069064829491507 0.9182595931305098
0.0139357162795177 0.0588051622185719 -0.5092190870516523 0.9180645847216797
-0.0649165460984663 0.1156520997734466 -0.5328357147737444 0.9987011375721998
-0.0697588700289208 0.1186936256637052 -0.5354231227704767 0.9985217990337532
-0.0575548062339376 0.1108976161384255 -0.5291969215003388 0.9993198365993132
-0.0481256809602006 0.1048083400315035 -0.5244745534591798 0.9983340341243567
