ply
format ascii 1.0
comment object: PointCloud
element vertex 616
property double x
property double y
property double z
property double smooth_sigma
end_header
-0.0174348173554313 -0.1275787982481222 -0.4272276270103905 0.5617330056010719
-0.0158863586803022 -0.1412355582686183 -0.4387329962849150 0.5930832633058934
-0.0132317527112008 -0.1239311186456553 -0.4233398803544223 0.5567877416489884
-0.0145395226177016 -0.1284771894498372 -0.4272697465951566 0.5628693797422812
-0.0172715798763307 -0.1439900340431149 -0.4417758005558698 0.6100134502233274
-0.0185184258188719 -0.1425682541089982 -0.4407320437627087 0.6002936694147090
-0.0150123985328100 -0.1467445905527581 -0.4437642166226798 0.6173361484185720
-0.0145467443594066 -0.1357025236703208 -0.4333274037601935 0.5756154998727847
-0.0129179001990915 -0.1358396450196935 -0.4328742226123689 0.5756154998727847
-0.0196635748251403 -0.1329684141560470 -0.4323168596740023 0.5700703134005555
-0.0138306839607655 -0.1195391597984692 -0.4202078945682241 0.5551601069622376
-0.0187862079296186 -0.1281531126707299 -0.4279481821024223 0.5628693797422812
-0.0186296980621712 -0.1327614947376109 -0.4318610957140514 0.5700703134005555
-0.0160868053070869 -0.1326428832972733 -0.4311529417468796 0.5702827459433512
-0.0201392958063425 -0.1402077667370113 -0.4386917526290683 0.5937681944930062
-0.0192339286028767 -0.1467211307064782 -0.4449602434889780 0.6221978546579223
-0.0198747676605423 -0.1442711541471136 -0.4426413426464508 0.6115574175407206
-0.0171754860621436 -0.1737239239454293 -0.4762815058281411 0.8236877346462450
-0.0155183442804996 -0.1649358901902803 -0.4639905051977032 0.7426681507230544
-0.0172234756926974 -0.1726669493212114 -0.4749736760814879 0.8185292562190365
-0.0146788222290585 -0.1604071731186445 -0.4584643871949879 0.7067584525921361
-0.0138022910450290 -0.1516192825164152 -0.4482961261534962 0.6384666515020561
-0.0164826574166104 -0.1689231160249278 -0.4696443038237033 0.7902696742329648
-0.0131087953763124 -0.1524066155708030 -0.4486811891622657 0.6459550695064411
-0.0149221231712427 -0.1597909094243416 -0.4577918897676798 0.7031173759198822
-0.0141425645014344 -0.1560106692460606 -0.4531779633385334 0.6695918413830222
-0.0124508895300900 -0.1483650472981292 -0.4442559149022603 0.6228789311015317
-0.0156736388922408 -0.1635854696286863 -0.4625793429217456 0.7341444884135531
-0.0069898099240701 -0.1245510485356420 -0.4212904322970146 0.5546335131407278
-0.0092531624136064 -0.1343076057664745 -0.4298642189414132 0.5697381024494683
-0.0103444962199020 -0.1405347330077915 -0.4357216428951681 0.5840677584499813
-0.0120600426656575 -0.1441553084252441 -0.4400080152926870 0.6015311887745477
-0.0087829092615142 -0.1297431434147791 -0.4261054576834942 0.5617380914636171
-0.0074349174813106 -0.1228685350332452 -0.4204395781062074 0.5550284819991850
-0.0077024308077258 -0.1204974242079144 -0.4189803646184006 0.5549629765243257
-0.0061199664840853 -0.1190564306636631 -0.4171268848368579 0.5549005366258659
-0.0072000520756218 -0.1157292978958472 -0.4158017422489684 0.5556479731724157
-0.0099019289653472 -0.1293601421997068 -0.4263385285118734 0.5617380914636172
-0.0092444445330671 -0.1364850410598805 -0.4315325025445062 0.5737063634592200
-0.0085876911505270 -0.1256557759435702 -0.4229573372920066 0.5557296187925758
-0.0064545558221124 -0.1175434188158492 -0.4165454777621365 0.5560897492131547
-0.0104458419175311 -0.1380470742155983 -0.4336517465431555 0.5791292342646062
-0.0095320308031272 -0.1236754667398630 -0.4219643132866331 0.5549405636201401
-0.0085264246794136 -0.1184064992902884 -0.4179772514880428 0.5551673119895617
-0.0111851065184827 -0.1349665266931582 -0.4314063793368477 0.5700703134005555
-0.0081723181723738 -0.1303270656013849 -0.4262754568864806 0.5620848435343062
-0.0113239167711035 -0.1448219017995328 -0.4401324105601633 0.6030887157876497
-0.0099010816704111 -0.1338463018463806 -0.4298504133140932 0.5689632783875217
0.0129386792556803 0.0167062081639762 -0.3953050927145155 0.8157990656140355
0.0170164842817809 0.0382334738396990 -0.4084394081215325 0.8379130169723064
0.0181251748335362 0.0438553670925748 -0.4163699517138457 0.8681838866412913
0.0123114214922041 0.0129217299685803 -0.3936810239650219 0.8203809396205863
0.0141224308423233 0.0223180047566623 -0.3964331191698643 0.7948497582219182
0.0149169037386780 0.0269040347011713 -0.3989260513930557 0.8139404102088034
0.0135394751228293 0.0199829262903500 -0.3964776881587289 0.8049186030964603
0.0114358055983910 0.0093930396314418 -0.3935556356864759 0.8350574408073573
0.0163354220805909 0.0345652675856912 -0.4043181862665873 0.8260005350935007
0.0144208942149811 0.0243229822244899 -0.3979681205844133 0.7887481499391221
0.0154731198444014 0.0298963932758161 -0.4008050142761290 0.8241221341677558
0.0107709681781742 0.0054662448752773 -0.3921225963684194 0.8496549223351908
0.0142681881315708 0.0231514250079981 -0.3968395459916031 0.7887481499391222
0.0175913697360772 0.0414284398501966 -0.4110025937129426 0.8514933476889749
0.0150950664056581 0.0275316114328972 -0.3987617141223648 0.8168283860637612
-0.0026010151581690 -0.0540352747882892 -0.3920030592412306 0.8090723646506450
-0.0010358313646769 -0.0466802294678419 -0.3909569119705552 0.8427104657418060
-0.0005920275782107 -0.0511437907465037 -0.3914161433870358 0.8175850426520379
0.0015886497521756 -0.0438531238978122 -0.3902967628811725 0.8533828658958806
0.0021268992884160 -0.0337183459116745 -0.3895550546278812 0.9136835278825891
0.0010640003731846 -0.0437240776329652 -0.3903807436096865 0.8533828658958806
-0.0008846295424751 -0.0492924111586246 -0.3912255286856209 0.8291171758607031
0.0009063083831356 -0.0397507872586456 -0.3900277167886996 0.8786752428454939
0.0040152511991241 -0.0295120080970247 -0.3892804426537848 0.9196981956592217
0.0013202668074822 -0.0399643285136710 -0.3900528792980582 0.8786752428454939
0.0025093608137997 -0.0362401112299971 -0.3897095457483676 0.8895409638902316
0.0034287736939395 -0.0277679643875084 -0.3894199832711875 0.9237139245094352
0.0011671437611968 -0.0374170534245222 -0.3897001987786387 0.8807559484708595
0.0054381995580708 -0.0191292122403666 -0.3896842884340722 0.9367196458638225
0.0042968382930286 -0.0251682794260558 -0.3894779606990080 0.9335246010380349
0.0028781905431183 -0.0322698917877940 -0.3895791770844552 0.9176350334600935
0.0058509791502496 -0.0190393890497087 -0.3893752008860959 0.9306784355947045
0.0091552664271465 -0.0025875378751719 -0.3906547394446672 0.8673271814504028
0.0096921203283971 0.0008515230171572 -0.3915289116128266 0.8622403846181754
0.0078919066692234 -0.0077070999277320 -0.3903138423165906 0.9023080245555828
0.0074168133513745 -0.0107019372937742 -0.3899033564876465 0.9133218622318680
0.0078163539173168 -0.0101325746953157 -0.3893002369104034 0.9133218622318680
-0.0009521932639364 -0.0601906610380715 -0.3926594680211768 0.7747169638247667
-0.0138562752211383 -0.1007869746824715 -0.4083326469718967 0.5726790240470815
-0.0128756974644777 -0.0916397225374407 -0.4040448613750059 0.5995130734453687
-0.0089898494618044 -0.1059012954765298 -0.4105882420368137 0.5653737260043041
-0.0076485343331201 -0.0726001841806980 -0.3973314638899839 0.6822756412301445
-0.0100705187058645 -0.0985335239959405 -0.4068699510827358 0.5804973301029138
-0.0084183100226442 -0.0972153604167436 -0.4060056436075234 0.5819154997890028
-0.0059191172420252 -0.0895319960039806 -0.4021701286704080 0.6144573480356303
-0.0100168530543813 -0.0943725753782187 -0.4049298290288990 0.5946104266336768
-0.0062075587805094 -0.0735536359046832 -0.3970409119664182 0.6822756412301446
-0.0039799838799095 -0.0752916945379953 -0.3968365820440838 0.6711299184496085
-0.0148535690042429 -0.0974423138542787 -0.4061995171336795 0.5805628012669303
-0.0110074973825845 -0.0850726977473364 -0.4016632757439960 0.6255739259055767
-0.0092474225043947 -0.0788440565779641 -0.3994406772478847 0.6565920854951636
-0.0030159750097580 -0.0663784004664827 -0.3944535249383266 0.7381136788675461
-0.0084750562776971 -0.0791725952711047 -0.3992457365565074 0.6556003678296962
-0.0022935936328397 -0.0586275082475995 -0.3928652374637479 0.7879666209045694
-0.0128031625749901 -0.1017276124862708 -0.4088443996651757 0.5726790240470816
-0.0057719662760252 -0.0679807374702031 -0.3955554248814145 0.7209763369892742
-0.0110242838867423 -0.0928433276144182 -0.4043831497363766 0.5953513155690441
-0.0075551257651211 -0.1002249107810833 -0.4072854225806584 0.5796139018225285
-0.0006596397751388 -0.0554027584323690 -0.3919405639667036 0.8090723646506450
-0.0153592054189315 -0.1037219796551129 -0.4099494039639423 0.5653196064944342
-0.0112184180747878 -0.0887261022316644 -0.4028121522667444 0.6142646089632952
-0.0050727178048480 -0.0745546908664728 -0.3969669340548633 0.6733808882228767
-0.0143353029097864 -0.0979482253776105 -0.4066803665301165 0.5802009401292260
-0.0076890500353657 -0.0892894503625996 -0.4024338804905679 0.6144573480356303
-0.0040753921023134 -0.0586178746563557 -0.3926004572589665 0.7879666209045694
-0.0096052852113923 -0.0868528236416814 -0.4018546581531046 0.6221426236220030
-0.0071638852639888 -0.0804196522373892 -0.3992058220845667 0.6463912731004167
-0.0057669031086878 -0.0654112088481416 -0.3948440255676576 0.7381136788675461
-0.0042822396824310 -0.0665250568843047 -0.3948456104606455 0.7351157769571738
-0.0128611119941664 -0.0953177370747799 -0.4055671813117223 0.5846333700711089
-0.0056545892915023 -0.0818337203298572 -0.3992953921632784 0.6420867184943534
-0.0108764561845879 -0.1035840419141242 -0.4096251248968673 0.5691814238614197
-0.0162269148223844 -0.1040582333339167 -0.4099339133100453 0.5653737260043042
-0.0108523061808210 -0.1083024513533640 -0.4122732047613025 0.5651008656881454
-0.0081938313167107 -0.0860498829077212 -0.4012920423893264 0.6234916789578756
-0.0036488400410927 -0.0603684290703588 -0.3934082149523433 0.7678600342821623
0.0019133573871982 -0.0479929352193246 -0.3906716385685774 0.8427104657418060
0.0010033979043552 -0.0499060416800959 -0.3909518634058238 0.8291171758607031
0.0037427888274521 -0.0327269588626483 -0.3892681871957853 0.9176350334600935
0.0026577723573053 -0.0391639084556522 -0.3898028354998139 0.8807559484708594
0.0044981394224040 -0.0290134477216246 -0.3888114269382183 0.9220604507078387
0.0099848516584417 -0.0006161873743855 -0.3883386509587720 0.8599543336381034
0.0033081627024933 -0.0372057733683320 -0.3895991853857368 0.8867057546905559
0.0054603063509756 -0.0230863771125333 -0.3889142114375841 0.9402546126472273
0.0071296119695744 -0.0151647368937746 -0.3886588494523315 0.9313988418881177
-0.0008953529082434 -0.0679135838600208 -0.3938055685862313 0.7304174632511679
-0.0011609509200257 -0.0770786730064643 -0.3960049209490696 0.6711299184496086
-0.0055478334049155 -0.1018046002952357 -0.4075744209385887 0.5767250628576104
-0.0070283985366940 -0.1068671350458256 -0.4106609161132496 0.5653737260043042
-0.0001254858635459 -0.0674551820913449 -0.3931332883026225 0.7381136788675461
-0.0045645172992917 -0.1020139558369487 -0.4073490467566929 0.5774934036078015
-0.0022651172658914 -0.0792187744323200 -0.3973162931002281 0.6565920854951637
-0.0017727491971567 -0.0661666451945436 -0.3939588999416248 0.7381136788675462
-0.0002861054401364 -0.0606724822380211 -0.3924454528383685 0.7715672540151601
-0.0035015708709142 -0.0930918229404739 -0.4027848779193889 0.6002098953869026
-0.0038439445460004 -0.0874997434339809 -0.4007371101320278 0.6234916789578756
-0.0020020891266363 -0.0833552666575317 -0.3985217545178359 0.6420867184943534
-0.0057984646591276 -0.0970613778534756 -0.4053319063528097 0.5843273370424467
-0.0046999136578998 -0.1065186765321359 -0.4098186909612964 0.5653737260043042
-0.0001569474524151 -0.0646531825311632 -0.3928114273718097 0.7472024663724508
-0.0028332425994816 -0.0942810892749058 -0.4026743658493600 0.5988924092892238
-0.0040424070370350 -0.0816695189425600 -0.3987783677270719 0.6463912731004169
-0.0029165552412024 -0.0871623118601962 -0.4002671005063245 0.6245351852790221
-0.0036445100830496 -0.0992724468511643 -0.4055701619656156 0.5812673225806566
-0.0043503035465021 -0.0931502808852810 -0.4031494443422480 0.5988924092892238
0.0008323958927250 -0.0556802727751506 -0.3914858351099337 0.8090723646506450
-0.0024648547623758 -0.0735559964333039 -0.3958199660452702 0.6866469742391508
-0.0014414491685143 -0.0729943037573874 -0.3951709556377574 0.6866469742391508
0.0003356461162614 -0.0621897079599111 -0.3920846660881673 0.7678600342821623
-0.0007434041499059 -0.0718064664805837 -0.3944767119451361 0.6919016789036416
-0.0718816399290811 0.1583233304271678 -0.4295717368446735 0.9475509602191975
-0.0680440300420235 0.1517120673179799 -0.4359606866362321 0.9049891711873650
-0.0726159544369849 0.1592227389573720 -0.4283950240166590 0.9368502288824609
-0.0788334471331374 0.1682284980910052 -0.4182047059501247 0.7992554168313056
-0.0764422013367590 0.1654708503048250 -0.4216912899743726 0.8597978199116679
-0.0702504796102604 0.1557572760533906 -0.4322873845352073 0.9202879425449375
-0.1048851319782009 0.2827739131130394 -0.3504380180668670 0.9292054309884826
-0.1055934924947596 0.2879448808709567 -0.3480497138128241 0.9402911931730653
-0.1078083992656416 0.2982555227361070 -0.3435507108115104 0.9575563182661584
-0.1074419082430321 0.2990087480515058 -0.3430849788241138 0.9601674947207006
-0.1069924347658192 0.2955178918172570 -0.3446761944036641 0.9526889990625602
-0.1049530236238215 0.2814695011928067 -0.3510753818070395 0.9215822461464925
-0.1091513090719922 0.3049804778364588 -0.3405979515195860 0.9674144174980257
-0.1085180024281854 0.3027638066143024 -0.3415462604463335 0.9629967190298115
-0.1064401389802767 0.2905428938569343 -0.3469922590130486 0.9463355968237491
-0.1070534920300059 0.2990209466466673 -0.3429666168944257 0.9601674947207006
-0.1052146098443439 0.2914288714934110 -0.3461809658014234 0.9477129892181254
-0.1040898665685619 0.2844345901800855 -0.3494145035922498 0.9354492569748388
-0.1024283477064733 0.2802132037548120 -0.3511007210697288 0.9202959315445389
-0.1048504579378393 0.2891440201801588 -0.3472454736095235 0.9453648440026753
-0.1062594866573546 0.2945175697579991 -0.3449602758090158 0.9526889990625602
-0.1034471028439907 0.2832669016519842 -0.3498341008761539 0.9292054309884825
-0.1038493289056872 0.2858466194312350 -0.3486289835135482 0.9354492569748390
-0.1058485522268978 0.2914513545093490 -0.3463734153957309 0.9477129892181254
-0.1046227908571526 0.2848651410920219 -0.3493338871919122 0.9354492569748388
-0.1061742667841097 0.2951051080343600 -0.3446386889228727 0.9526889990625599
-0.1114038019656219 0.3166441308929577 -0.3358132950000696 0.9872548452573059
-0.1104390978208404 0.3116339433799901 -0.3378611144754198 0.9807770127554848
-0.1116969951035805 0.3177376778160595 -0.3353825644152699 0.9880344877585922
-0.1085962282158930 0.3040701134749402 -0.3409457448549386 0.9674144174980257
-0.1096145520539783 0.3084016335517104 -0.3391552387550993 0.9741704423831044
-0.1092523246262355 0.3074523569851803 -0.3395102646610696 0.9734495633416048
-0.1121522694348961 0.3199552500118611 -0.3344918567561178 0.9905811171112759
-0.1100190775925081 0.3108232039532585 -0.3381352684395624 0.9797702751302126
-0.1104588602890201 0.3129273433980854 -0.3372808850122686 0.9843062999017979
-0.1119302564299151 0.3190102605056985 -0.3348663104438421 0.9887655193457485
-0.1104427076662392 0.3122286983306128 -0.3375921301109593 0.9843062999017979
-0.1112606998180736 0.3156015299529917 -0.3362413113110979 0.9872548452573059
-0.1096698856610687 0.3079961328440045 -0.3393468125578943 0.9741704423831041
-0.1081861125021649 0.3038242346575823 -0.3409317327405926 0.9652529866422808
-0.1087506687222569 0.3059209571734082 -0.3400954127189253 0.9684328968814577
-0.1079514209096094 0.3022389052723428 -0.3416516435891754 0.9629967190298115
-0.1095057346093784 0.3091505492091087 -0.3387719822909541 0.9770744557862567
-0.0871132296110747 0.1845247274508317 -0.4002147669768287 0.6986426045109092
-0.0888681857987275 0.1939972414081725 -0.3904645121068695 0.6738128031179466
-0.0916304700658944 0.1865244521341330 -0.3948593211140136 0.6884354135149122
-0.0963337767637829 0.1944640081839111 -0.3882752096237740 0.6601080365079205
-0.0825619464284897 0.1755524164439599 -0.4109148216449602 0.7152749343921264
-0.0878654011281874 0.1897802827329531 -0.3953400658775124 0.6851580719317928
-0.0913048082958060 0.1980975530983796 -0.3885503130243803 0.6593780331575055
-0.0879041892950144 0.1882519480580644 -0.3969441965220691 0.6880551054128816
-0.0892330249120697 0.1855077990109846 -0.3974204836462792 0.6924248261581545
-0.0841379276855251 0.1790113462131068 -0.4071271931159385 0.7071220618466917
-0.0898818790865022 0.1916043292524918 -0.3932913192919148 0.6787852440782781
-0.0951236207390398 0.1980322804616334 -0.3874168199785515 0.6559377551714664
-0.0857101667030213 0.1828394126728773 -0.4026875752919809 0.7044382989555417
-0.0927857487782856 0.1904164863208019 -0.3922408538359161 0.6797752135914267
-0.0923176428856364 0.1946899716657857 -0.3903672163839599 0.6621300223657401
-0.1002218042825268 0.2501019154208176 -0.3656077569522045 0.7758405530514557
-0.0998407887765404 0.2440321160918885 -0.3682632771201302 0.7472145798749693
-0.1004950417856325 0.2487106374989206 -0.3662657990167988 0.7682145105521271
-0.1009470487402875 0.2547521348829395 -0.3635719010622765 0.7979583743675247
-0.1000442867091341 0.2428487156640142 -0.3688775207640057 0.7369858996911290
-0.1014883647178912 0.2587183232011174 -0.3618134697900749 0.8241217898834923
-0.0999327463787046 0.2367904295908457 -0.3711034456814372 0.7089573614753777
-0.1028865319661136 0.2168877263092208 -0.3763817537403909 0.6288063858770906
-0.0927088504595313 0.2238834161543590 -0.3774614466502612 0.6454518570961054
-0.0928710994874671 0.2298225063041045 -0.3749848105275810 0.6737787876632582
-0.0966315409107781 0.2056395850888268 -0.3837308419099701 0.6338222756974577
-0.0977587668446224 0.2349775950103750 -0.3720035276383442 0.6965737061620897
-0.0934698420950792 0.2295993205885113 -0.3749486166902679 0.6737787876632582
-0.0991112947029686 0.2074716310654886 -0.3819066699173766 0.6211031792333591
-0.0988175815233741 0.2006497347971180 -0.3845717533936550 0.6451590251134043
-0.0954261476307354 0.2180713547400992 -0.3792479654201397 0.6292590630657531
-0.0993327038489720 0.2362793808362409 -0.3712565483151309 0.7020056730287753
-0.0937377834347980 0.2218866916897440 -0.3780938810158665 0.6440389030595639
-0.0929212425690443 0.2138934356122881 -0.3814067951974239 0.6116584006141165
-0.0918540036643120 0.2054115845114788 -0.3848624876426677 0.6327084671030276
-0.0948526374302296 0.2391370443900405 -0.3705652806210615 0.7157910653639598
-0.0989860604091185 0.2284414943068843 -0.3741926016553361 0.6713648572244414
-0.0948616912180513 0.2283965353797810 -0.3752204539557901 0.6724505965012121
-0.0963319860079983 0.2271736278946258 -0.3754023317222709 0.6662852567998703
-0.0985725785558464 0.2134238541758603 -0.3799215819854823 0.6173862493577258
-0.1008114653751858 0.2274669175526517 -0.3738141872257696 0.6685994704423447
-0.0940345387764372 0.2371907986183205 -0.3715364560076083 0.7020056730287753
-0.0911550229261152 0.2102769340668802 -0.3828104053952807 0.6090498393549008
-0.0901558870816367 0.1999250228592753 -0.3866192033020901 0.6592491635640781
-0.1018586886791119 0.2086390696367053 -0.3799964272738088 0.6152264102684531
-0.0962984909243970 0.2421221169964213 -0.3691225137260966 0.7324919384819506
-0.0911416751744347 0.2160738663395788 -0.3809018363313826 0.6255542859250710
-0.0942387585295217 0.2095476629900998 -0.3829416323571244 0.6129655099802305
-0.0984387900610212 0.2464647755710072 -0.3671365545357488 0.7563693191838935
-0.0994445865311457 0.2500133560395237 -0.3655687645469392 0.7730036262729031
-0.0952688155975495 0.2353496479821637 -0.3722080235148868 0.6965737061620897
-0.0918823247210148 0.2219747389565921 -0.3783760316758922 0.6440389030595639
-0.1010251284931664 0.2143906456762032 -0.3783694179536769 0.6238250378468292
-0.0921050160669726 0.2179711773048974 -0.3799389631366401 0.6300404510572898
-0.0977776082547953 0.2217311890626308 -0.3770831906433439 0.6440186688855405
-0.0998549481321806 0.2207740772729865 -0.3765926120747042 0.6417767486240301
-0.0963185900485579 0.2122125393972294 -0.3812805416060995 0.6075180953134709
-0.0934744866781236 0.2023887177868465 -0.3861289914142197 0.6435692403519643
-0.0990928377993859 0.2430767789986916 -0.3685853474353943 0.7403566631865103
-0.0963216995839968 0.2342285526022858 -0.3725497112174104 0.6935493480655643
-0.0973626807878955 0.2421015602388002 -0.3690743227085175 0.7324919384819507
-0.0811122183044611 0.1720813301030219 -0.4139699062368155 0.7262546100529168
-0.0885303927339292 0.1812227871610932 -0.4006998016964909 0.7025951999038658
-0.0857933319795461 0.1803025640912784 -0.4043699643033272 0.7044276880331979
-0.0814538553274355 0.1719095974419904 -0.4138376891671849 0.7262546100529168
-0.1040649346478263 0.2776379431557292 -0.3528215285818102 0.9020716836469008
-0.1028985721759868 0.2684742688574733 -0.3571914567122699 0.8593148336057199
-0.1017340363142398 0.2630578801554730 -0.3596583891712422 0.8358373790534775
-0.1029070407963012 0.2712415396892171 -0.3557956943661732 0.8674564270608407
-0.1045377549000720 0.2826935900739542 -0.3503973758212602 0.9251494089221499
-0.1035958978605755 0.2770857525734060 -0.3529985501558742 0.8966067721086434
-0.1038793156635063 0.2749964228528127 -0.3541109760581125 0.8881616282714876
-0.1005955042604922 0.2555892315973089 -0.3630964801645514 0.7979583743675247
-0.1015360551599466 0.2655939538007990 -0.3583526193130600 0.8466055524914832
-0.0963457567619141 0.2504138336298281 -0.3652302713907870 0.7730036262729031
-0.1011199937103364 0.2678106628018127 -0.3571637809082031 0.8593148336057200
-0.1012908170053798 0.2751004521361712 -0.3534687205728093 0.8864398627952434
-0.0988453224152725 0.2601872576655708 -0.3606264449871048 0.8265035428129246
-0.1002067334861534 0.2702404919998352 -0.3557279824181706 0.8612560289145517
-0.1027521755414341 0.2785777590807868 -0.3520474883780608 0.9020716836469009
-0.1003823562359878 0.2585848792396683 -0.3616173400533159 0.8241217898834923
-0.0990272748617108 0.2530317095428851 -0.3641320405645174 0.7911351522153566
-0.0956570843414981 0.2465687184966515 -0.3670584574021036 0.7524518847004087
-0.1033124041001109 0.2788337543318044 -0.3520538764116773 0.9096442279590681
-0.0982207788657825 0.2601570719271821 -0.3605671232929650 0.8265035428129247
-0.0950621611562687 0.2434762120291791 -0.3685374705924191 0.7405845563029709
-0.0993002762483496 0.2646033403896733 -0.3584647590047186 0.8390984164722097
-0.1022517227973411 0.2719578079753768 -0.3552967374650541 0.8745046736817281
-0.0961606209878709 0.2507141318897397 -0.3650780839621016 0.7785595158653548
-0.0973268310664692 0.2544004706894769 -0.3633421977434550 0.7937351404531587
-0.1004768876204691 0.2693890493483859 -0.3562368232739188 0.8593148336057199
-0.1017247661030558 0.2725671494065416 -0.3548786369324685 0.8764072211890552
-0.1001056401576202 0.2622237980902557 -0.3597845429162187 0.8306724427697914
-0.1020615013177671 0.2775148351294444 -0.3524170546866667 0.8982328649500050
-0.0966027337204554 0.2476937402090350 -0.3665370864753265 0.7633201891836012
-0.1001858275636276 0.2658550564364716 -0.3579816824337584 0.8466055524914833
-0.0977047862756275 0.2482285260520751 -0.3663129540256259 0.7633201891836011
-0.0982019435186187 0.2539702793143306 -0.3636134473979604 0.7911351522153566
-0.0886204027460655 0.1964733731229358 -0.3852380530669390 0.6702556039186008
-0.0903100537055227 0.2120078470869040 -0.3827273039758234 0.6031054702937602
-0.0896023855708605 0.2046642779591342 -0.3840230189773737 0.6406710756375404
0.2508634709815803 0.2387898493437795 -0.3380170579446827 0.8072957475943157
0.2541038900211483 0.2369903035802264 -0.3447283124278173 0.8501351559256699
0.2542330432830325 0.2369005557668490 -0.3449691974185228 0.8501351559256699
0.2524793148866178 0.2379374843174128 -0.3411875731553967 0.8262363555918421
0.2521703238264113 0.2381499249442071 -0.3401798020829356 0.8262363555918421
0.2550023644472147 0.2364057654586920 -0.3468619052855612 0.8725148057309848
0.2514095944894969 0.2385975149236065 -0.3388539806898634 0.8161042738710155
0.2531725996678109 0.2375459280991386 -0.3426824563927467 0.8262363555918421
0.2510329615139493 0.2386986063909698 -0.3379724449119482 0.8072957475943157
0.2532400447637772 0.2375229847372650 -0.3424479868550278 0.8262363555918421
0.2543561463454734 0.2368168867877851 -0.3451063428216307 0.8501351559256699
0.2547296531472557 0.2366027849592010 -0.3462376280058502 0.8655270653493231
0.2552274985635659 0.2362536944094021 -0.3473823943784983 0.8725148057309848
0.2522739164667428 0.2379616574226074 -0.3398806382347818 0.8262363555918421
0.2499963901921288 0.2391484270558268 -0.3365333259170292 0.8012590465915616
0.2427461437734350 0.2410823955306864 -0.3266729360565093 0.7423051181377845
0.2198777637222591 0.2391761432102932 -0.3091131259107834 0.6211443068284964
0.2228203881272870 0.2401034345285026 -0.3104364269865260 0.6338622499129200
0.2247282223321530 0.2414315514530197 -0.3116354753418943 0.6426910100641933
0.2451819665479738 0.2406780861985228 -0.3296545382974909 0.7598891342250549
0.2390885831783467 0.2398005056913895 -0.3214330348207415 0.7292320524504129
0.2307479694080056 0.2403548183930375 -0.3151815008898181 0.6799739700917597
0.2444376570065616 0.2410702399237269 -0.3291028405631962 0.7534794491036507
0.2420828704116903 0.2418498520460817 -0.3263032587087780 0.7423051181377845
0.2496565801180296 0.2394433197197856 -0.3357141316028718 0.7952105079930520
0.2308489387512795 0.2416192672567230 -0.3161303314956306 0.6812837541736713
0.2249388122082874 0.2398216902653931 -0.3114264716434703 0.6427438947499116
0.2352582903100194 0.2398371905730761 -0.3180085253810129 0.7028611274018036
0.2296310971614819 0.2386664191172553 -0.3132510769772091 0.6637049059994159
0.2285947701114413 0.2408005705958778 -0.3140596705530205 0.6637314224273121
0.2364634014553660 0.2408355305201119 -0.3198322293283888 0.7152272996826182
0.2401075201805227 0.2418354567817296 -0.3241407972911371 0.7349960115284845
0.2424184868161474 0.2405176866450758 -0.3256879301881012 0.7423051181377845
0.2357183319943441 0.2414801412347524 -0.3197236353482522 0.7147723033812197
0.2474684824878502 0.2400570444932262 -0.3325774171723981 0.7791596954862968
0.2395736850034615 0.2409100108568250 -0.3228741289054789 0.7307540257317082
0.2366933401481022 0.2423617492121823 -0.3208570625944334 0.7220530230728882
0.2316637773683024 0.2375482864549444 -0.3135519181846559 0.6724809131762441
0.2352781168185671 0.2386967651745665 -0.3170100281723395 0.7028611274018037
0.2045800220861651 0.2325454650954587 -0.3023183936324447 0.6090841494835313
0.2051254286725503 0.2318176830630489 -0.3024373102366902 0.6090841494835313
0.2095569958967877 0.2346915542191416 -0.3042771183165541 0.6073999477005898
0.2216383644247940 0.2365042190807873 -0.3080382913555955 0.6253813160060366
0.2245350225376704 0.2382240491201274 -0.3103042622860985 0.6363599580742177
0.2194033012023627 0.2368353582087614 -0.3075985894373835 0.6196879613103210
0.2096147207287161 0.2335771262430190 -0.3038374279055546 0.6081780536136656
0.2246421782667466 0.2365631939052880 -0.3092098272970985 0.6362920078599588
0.2147735440934657 0.2368661578040507 -0.3065263788721120 0.6111508426425680
0.2139196119675130 0.2344506016115911 -0.3049999296612483 0.6119324342375542
0.2194217114205670 0.2383312245279001 -0.3084334830264752 0.6196879613103210
0.2145116123800716 0.2360057334298523 -0.3059226262510129 0.6121167460583440
0.2457440390013993 0.2385300148058754 -0.3281733268844984 0.7555737497838525
0.2450109520930139 0.2403401888961715 -0.3289555993654078 0.7555737497838525
0.2401253682287553 0.2387276039608295 -0.3214885367366886 0.7292320524504129
0.2433006938226087 0.2388099198157476 -0.3251785776557812 0.7406705434759876
0.2499106700437788 0.2391307992410761 -0.3358495074763161 0.7984469590235215
0.2461555585494208 0.2391376359101789 -0.3294017379602792 0.7598891342250549
0.2500828737339518 0.2383245414144144 -0.3351768281338632 0.7952105079930520
0.2499484834697727 0.2386867809365850 -0.3353746136298852 0.7952105079930520
0.2432733339938793 0.2378720916798878 -0.3242279973176125 0.7388505599494158
0.2511192013880012 0.2384063971804559 -0.3375622837423765 0.8072957475943157
0.2465620598861731 0.2397507139044520 -0.3306228916239121 0.7655197322077838
0.2475280439679153 0.2383056471197819 -0.3307442273175937 0.7682477390624788
0.2482684068704783 0.2395316418007747 -0.3331617001331690 0.7825265592239012
0.2429616333759229 0.2397775174968070 -0.3256757396863223 0.7423051181377845
0.2360360538685630 0.2376783386542515 -0.3167475142285352 0.7028611274018037
0.2486954917487532 0.2389540131872335 -0.3334056915798894 0.7894165997570917
0.0445128297601098 0.1003920603939261 -0.3090147861180917 0.8850466907849869
0.0666451918819183 0.1163498962480367 -0.3054846330426177 0.9941836075754246
0.0387013436811974 0.0962543288563976 -0.3099564981983511 0.8985016995838956
0.0468519027979881 0.1020267648839086 -0.3086215523784828 0.8758191892058557
0.0529302099456174 0.1063579473143440 -0.3075526834051145 0.9368130301303019
0.0526208909835892 0.1061691083503054 -0.3076361645532877 0.9368130301303019
0.0615715342339131 0.1125437623684375 -0.3062283462894226 0.9829597858811837
0.0684401583757071 0.1175409089604306 -0.3052371865742353 0.9941836075754247
0.0736747366826729 0.1214287831748727 -0.3045657406170049 0.9862925478064284
0.0373330251704556 0.0950728530858697 -0.3105840512211783 0.9010483738824890
0.0459490999071987 0.1013977541851976 -0.3087746612029719 0.8763913604638333
0.0739295389716219 0.1218271668653642 -0.3046050481949061 0.9844425608364132
0.0603714268853809 0.1117490639545635 -0.3063884840685100 0.9774603038874070
0.0527692883425610 0.1063136934776273 -0.3076159662406361 0.9368130301303019
0.0615656337271314 0.1126382459788265 -0.3061411638519108 0.9829597858811837
0.0776546392124180 0.1239431917137167 -0.3039366724749221 0.9788724453473047
0.0871567736574156 0.1318114777858799 -0.3030170994263668 0.9303129648505286
0.0949783947835646 0.1363753649021303 -0.3018257374804236 0.8927314032876220
0.0845657628186067 0.1287665333569079 -0.3029990156063008 0.9497551156037422
0.0903243350769291 0.1338445049953313 -0.3025604411421207 0.9184157114123537
0.0845398901412558 0.1289238040850438 -0.3030792174547943 0.9497551156037422
0.0698455288581226 0.1184202221751001 -0.3049832021794482 0.9889397836607938
0.0967802570339316 0.1381187557243039 -0.3017110042426022 0.8770799917262374
0.0898205084213050 0.1329660023461544 -0.3025051055256069 0.9228278257620700
0.0783005970310728 0.1246220185804525 -0.3039237105605268 0.9788724453473047
0.0824430443773795 0.1279658213174526 -0.3035010592947924 0.9589672125100924
0.0263650780386630 0.0846006694985069 -0.3183658041927039 0.9007861926428519
0.0288513652965211 0.0880910811397530 -0.3136794876165077 0.9033145830972091
0.0351211212703726 0.0936140544835236 -0.3107221133871597 0.9009727543162765
0.0289100155627507 0.0888944753780199 -0.3118278997173487 0.9057368919994293
0.0408648604891085 0.0977103363439610 -0.3097269412527473 0.8947607594700983
0.0330647866594326 0.0922458984874887 -0.3108477085992837 0.9021180401450349
0.0312801949498634 0.0901884819997750 -0.3127598942304397 0.9033223249872916
0.0376998531215640 0.0954602908363315 -0.3102582865437608 0.8997344760216128
0.2518367013366100 0.2379813205771210 -0.3385143563119745 0.8161042738710155
0.2532509114733841 0.2375241313704914 -0.3420972969474726 0.8262363555918421
0.1594285832776407 0.1981716209365976 -0.2981588870761643 0.6237282248217060
0.1555152063690654 0.1934768366024971 -0.2982070909141169 0.6200510646605002
0.1483410155890212 0.1872507496238675 -0.2986526990641367 0.6233973017024190
0.1526347998098084 0.1914518421232750 -0.2984575388253035 0.6189720436793463
0.1376664923634845 0.1714036250867307 -0.2982479425052711 0.6467752754325028
0.1242865116099299 0.1613966589574151 -0.2994609330703870 0.6976469167548733
0.1388996262824241 0.1780111764132537 -0.2991097961086401 0.6355957109333275
0.1160156901435160 0.1554629890659704 -0.3002685402037136 0.7378133508971105
0.1330882828486696 0.1709373868806942 -0.2991757325847514 0.6503110586407289
0.1104324569162507 0.1506573410462524 -0.3006918454130025 0.7758643750865349
0.1155518091264380 0.1532849674726606 -0.2999950455807635 0.7502563241775200
0.1386517467620719 0.1769993171065954 -0.2989966807304227 0.6360672964939801
0.1274760341750060 0.1624329998593465 -0.2989185506168669 0.6875085830464512
0.1216086247019597 0.1579136143181281 -0.2994389531065684 0.7152523458963354
0.1393304846530911 0.1762484197577834 -0.2987267045737656 0.6360672964939801
0.1296494584411090 0.1626084445102950 -0.2984429025164463 0.6816427549534781
0.1289252630797503 0.1663052266601945 -0.2992904670642306 0.6756435156890912
0.1431799667888400 0.1823148631860282 -0.2989075309481570 0.6285304280533437
0.1359387701434871 0.1719729339258865 -0.2987292463378393 0.6467752754325028
0.1233573751908608 0.1578079337504603 -0.2990023523329757 0.7099092485935367
0.1440097757380594 0.1808356473446412 -0.2985021476426769 0.6273996511137936
0.1078153416455625 0.1479871908928669 -0.3008329777578812 0.8009912429804401
0.1468822446315563 0.1849920317278080 -0.2985846260931073 0.6241739927259339
0.1156803444840345 0.1544882266621121 -0.3001808107122838 0.7432673733723896
0.1336440529027250 0.1724436485725310 -0.2993120000780734 0.6503052722679549
0.1255501968462154 0.1640393571332260 -0.2996455024415262 0.6920544414640113
0.1051309017241730 0.1459798650108158 -0.3010932274131291 0.8077340401793396
0.1309324406748685 0.1666853002406114 -0.2989083928212474 0.6704058702228388
0.1081011571728690 0.1457127295045137 -0.3003379739197932 0.8048616403682497
0.0991671755806574 0.1410876083415104 -0.3016295548392366 0.8714497488857501
0.0945767686985386 0.1357211832562339 -0.3017905842624804 0.8950205213712470
0.1070150394813182 0.1459994584558749 -0.3006674347174653 0.8048616403682495
0.1020361068584539 0.1432159416033158 -0.3013454608939128 0.8420923990361843
0.0941020730246695 0.1370450816097898 -0.3021895556141195 0.8950205213712470
0.1210482127657955 0.1546117121373562 -0.2989182682008338 0.7210546155964364
0.1146296043070148 0.1510718008740349 -0.2997902734044045 0.7585386101793714
0.1136604850572758 0.1480787015353180 -0.2993976131511130 0.7688559006883774
0.0975010289539152 0.1392480835826349 -0.3017465408947596 0.8746065083496226
0.1009997451211282 0.1406010553994993 -0.3011143940202038 0.8538783183927321
0.1039850674034834 0.1442865796919417 -0.3010811543699552 0.8257460336707859
0.1096746986465928 0.1487662897849578 -0.3005455169571092 0.7895219322419200
0.1096001938788188 0.1459326161787882 -0.2999858811083467 0.8009912429804402
0.1026046558126383 0.1423462096272922 -0.3010569395696009 0.8470023141431985
0.1230722623227658 0.1547442503372448 -0.2984298667571619 0.7168710930334792
0.1176041769772445 0.1509454124388109 -0.2990005050022322 0.7432673733723896
0.1147533908657931 0.1497994749534264 -0.2994910273862187 0.7585386101793714
0.1050144908498373 0.1426566871889098 -0.3004632734178914 0.8257460336707859
0.1703930351326340 0.2069790278014239 -0.2978710841248128 0.6200046261470408
0.1525844750564797 0.1896459625074330 -0.2981833638847666 0.6205751544129358
0.1782776780691829 0.2124744988406652 -0.2979291602701835 0.6208956616865274
0.1638225822795572 0.1972102483510574 -0.2973335051797404 0.6230850817337888
0.1861599222744885 0.2076443021214076 -0.2961213330650338 0.6206627123289693
0.1798664061796145 0.2072542629064729 -0.2967941407229229 0.6196445006824088
0.1845523374058348 0.2130260405509577 -0.2975211304571906 0.6201729957515582
0.1627776452852727 0.2006769117171927 -0.2979826723341115 0.6223666436263101
0.1775289530237612 0.2087736000639359 -0.2973608276197922 0.6205217663372761
0.1598278726664939 0.1967240168618072 -0.2979193397807119 0.6233033855960363
0.1893129674187689 0.2186514573562117 -0.2985237093416261 0.6196644782032154
0.1870625432134516 0.2112091752695594 -0.2968614329482480 0.6194198005976221
0.1747826931688181 0.2049356750614695 -0.2969937710917233 0.6189333422314082
0.1670346758840689 0.2049753451883225 -0.2979117056575150 0.6221445659513127
0.1959013232648098 0.2214087660893529 -0.2989596878791088 0.6152715707742133
0.1799874263701131 0.2039356340409602 -0.2960786009944688 0.6193791759110193
0.1670994286376276 0.2035358752847944 -0.2977911852084029 0.6229410757033993
0.1588340294451822 0.1940864268612243 -0.2977012677872363 0.6206958034595111
0.1751907220730675 0.2110076005927100 -0.2980349381156992 0.6190108524833092
0.1702478093497171 0.2034814214635743 -0.2973750262097130 0.6199244790442011
0.1815125984147436 0.2127898209103799 -0.2976987751215652 0.6201281726139337
0.1829289800514834 0.2170374377685534 -0.2982206965072671 0.6196346330440399
0.1916516041145761 0.2176828541981771 -0.2981218142058314 0.6191517481861720
0.1645374899727499 0.2000055831091542 -0.2976500589354280 0.6237665604483906
0.1739167750576651 0.2085258156134741 -0.2977231193144483 0.6173288756975418
0.1719088037189246 0.2010450384833324 -0.2967096240911972 0.6203512132981518
0.1833065719149767 0.2155197843234174 -0.2980754578375407 0.6194065569912686
0.1923058111543466 0.2140559171843825 -0.2970973392186358 0.6196766429704894
0.2125733171466196 0.2180888729012196 -0.2979309508980165 0.6120946363251467
0.1970832878718183 0.2182681636987207 -0.2979769993927206 0.6162305685934316
0.2039324554303257 0.2183654137763975 -0.2978876566141621 0.6120538109183622
0.1995083414769059 0.2172543496135148 -0.2975695997310096 0.6143364933315215
0.1984747479704272 0.2140509691568989 -0.2966518450024301 0.6162794412852789
0.2178651197465275 0.2222174550174425 -0.3001048078782340 0.6094379867930833
0.2102103892138539 0.2199750287080783 -0.2985851797751384 0.6117002066620678
0.2079469383337736 0.2160545700475176 -0.2970795636168166 0.6111217447156877
0.2004939436331399 0.2129356031335648 -0.2961925025632984 0.6161239503941074
0.2054087603776258 0.2158233261771614 -0.2969885418419055 0.6120467203786505
0.2136688986357707 0.2205916794845295 -0.2990112223641021 0.6101523881814348
0.1940062401338212 0.2127205602213923 -0.2965932475829410 0.6185631240989854
0.2021291926978679 0.2121087725726014 -0.2958486976928548 0.6160713376564817
0.2301958136968663 0.2358321906886125 -0.3113349598671280 0.6601870337518692
0.1935981083203336 0.2092314768932182 -0.2957113480272102 0.6185192303192717
0.1955183784515152 0.2230642413836625 -0.2994944293230270 0.6152002683471041
0.1912285942970985 0.2222028934337126 -0.2994622300026820 0.6192515814916473
0.2012810044537180 0.2267985898319434 -0.3006659872555553 0.6096092763630873
0.1960940988055428 0.2249060736744705 -0.3000824806472649 0.6156364706101752
0.2010092636985664 0.2284408134708775 -0.3012052280794411 0.6104865575753488
0.1966348128716293 0.2266916406117702 -0.3007510310479068 0.6131342294119095
0.2183525654740614 0.2299088219967260 -0.3035486203506093 0.6121568181782185
0.2175704289439127 0.2272153389559851 -0.3022504128584999 0.6110726839953750
0.2228166771057498 0.2274448245259758 -0.3035168131236282 0.6133059983371861
0.2252742446058368 0.2317216300574481 -0.3064800478006698 0.6313328909271170
0.2097866851961064 0.2261050296330662 -0.3007618108835180 0.6104068398554178
0.2192554055400444 0.2321680366213037 -0.3048879648386805 0.6124915754445245
0.2279766578263579 0.2363597571103342 -0.3105747255129494 0.6463126895446469
0.2112825399433405 0.2311605430849870 -0.3030276957932140 0.6081649379997378
0.2111885139998540 0.2290060389485068 -0.3020648401232484 0.6101681964582112
0.2068487456967155 0.2296888281045919 -0.3019826337963722 0.6104068398554177
0.2011772826066621 0.2219644708178552 -0.2989951551473819 0.6117405674267102
0.2208825854905833 0.2275558469659032 -0.3030946860662238 0.6113578925518203
0.2143750530405868 0.2283277300708007 -0.3021874665497111 0.6079891634786251
0.2268075967178935 0.2339092880131214 -0.3083796194333386 0.6369023027067365
0.2008044242238617 0.2239297160517719 -0.2996481349186456 0.6110062494893285
0.2057619316926229 0.2257014380241748 -0.3003889977515630 0.6106057700594807
0.2056750988457847 0.2307104651171538 -0.3022149504832459 0.6104068398554177
0.2202135328997556 0.2344977744689851 -0.3064229160912738 0.6184272903671307
0.2255779164560625 0.2302815617505638 -0.3058541816873748 0.6237787322969320
0.2153270095514994 0.2237222697204564 -0.3004608857501414 0.6095979885196759
0.2219363601015370 0.2310697637989813 -0.3050724587250717 0.6182891151322325
0.2188743896012343 0.2245211777133443 -0.3013105915438493 0.6083693897259015
0.2158444077193152 0.2334787770505028 -0.3048499559504332 0.6121047752673682
0.2108076375420503 0.2240049110153504 -0.3001356545614684 0.6105363011381612
0.2157029645015989 0.2315233457639891 -0.3038256760204877 0.6121568181782185
0.2242672674368712 0.2345596984138539 -0.3077986763079976 0.6311355835574078
0.2048828799426164 0.2227278014934623 -0.2993035227506260 0.6094495418260221
0.1637477268861214 0.1916904229361459 -0.2964036299149166 0.6227337063051014
0.1584774960028624 0.1781837609580054 -0.2948921227504927 0.6223307385051362
0.1607890927761290 0.1774676840070009 -0.2941963967318493 0.6208546826094758
0.1524697567459946 0.1745795369456286 -0.2955074658760512 0.6261148635940605
0.1437543229687911 0.1756320046845138 -0.2976637405725162 0.6337805433795641
0.1738170665764806 0.1905261065377300 -0.2942759999313579 0.6232640954817562
0.1566513145910136 0.1824630382901615 -0.2961383166594108 0.6206205453387909
0.1562239425719070 0.1901620760279937 -0.2975616278325247 0.6197076873623938
0.1804150351611540 0.1981758735957745 -0.2947390371193568 0.6197278615879465
0.1435580156971279 0.1700817045674858 -0.2966544391812548 0.6370770479587617
0.1765318558382210 0.1999124891094236 -0.2957405932774668 0.6198451344941058
0.1452667310070478 0.1731373605306579 -0.2968637818731971 0.6332943430997442
0.1393598787317567 0.1661713806257525 -0.2968467963710157 0.6491734586065054
0.1613720434913073 0.1830133927774101 -0.2952537686108669 0.6201441609981415
0.1290339171399363 0.1605052035578865 -0.2981697449483552 0.6837883057744507
0.1373752076435859 0.1663103180170189 -0.2973480211077867 0.6509234477176634
0.1673001232929579 0.1849467411487064 -0.2944046326533409 0.6226587022665920
0.1567351762794517 0.1881386874563261 -0.2971262415844962 0.6191799929576143
0.1570020429429407 0.1858285384280864 -0.2966749216446338 0.6195787587425403
0.1714465153138796 0.1969536681253384 -0.2959935693017688 0.6241771165926784
0.1766780771650124 0.1974534484498834 -0.2951975304944825 0.6193306548146723
0.1752235826274715 0.1938804890891349 -0.2947160576237352 0.6217709355347678
0.1532830278881233 0.1729919248197456 -0.2949738473761770 0.6255953221104650
0.1500212891321262 0.1854102218908139 -0.2980153920023034 0.6230529442357816
0.1639826826792233 0.1812955780996890 -0.2943281543399638 0.6197307134398105
0.1614615371501901 0.1928756898478974 -0.2970332862684140 0.6227904643148172
0.1404641665322568 0.1711086452083901 -0.2975649074410733 0.6397158917806672
0.1812969814403846 0.2019213020730734 -0.2954405678433936 0.6197199379129313
0.1443139139173952 0.1787352187114870 -0.2980849516779367 0.6294349325335863
0.1688883119474555 0.1899056085247832 -0.2950947578187476 0.6237787802194292
0.1500125781014608 0.1789200134300515 -0.2969011364036994 0.6258798242813806
0.1670104669616373 0.1963639434030647 -0.2966560528925443 0.6237749358000225
0.1533017685719740 0.1771669521363776 -0.2958472284491339 0.6240597642756579
0.1677659101041162 0.1825930924583063 -0.2937798588721807 0.6213846846610552
0.1684927351009989 0.1925068637572121 -0.2956709938811160 0.6237787802194292
0.1515118712761993 0.1837810986335756 -0.2974400445621096 0.6227290127054078
0.1630625682574938 0.1877524844787583 -0.2958190245439015 0.6214208483138610
0.1468776259399530 0.1706164792563283 -0.2959871627214939 0.6346397009225306
0.1346567435510585 0.1672949750295822 -0.2981742893303043 0.6534585614102234
0.1918205306081719 0.1984594407651462 -0.2928320570199576 0.6186451036148306
0.2038088792965344 0.2090411995519322 -0.2945928779972840 0.6166598980194048
0.2028574347327040 0.2109040365968919 -0.2954562209717547 0.6160713376564817
0.1754616636629963 0.1865252957740578 -0.2929527529164307 0.6220927104769838
0.1856386224262127 0.2010886432679826 -0.2946294771785769 0.6200323956021462
0.1864531846170128 0.2048002192085492 -0.2954024519866685 0.6204123633958359
0.1705154454692911 0.1831032396033561 -0.2932696922008151 0.6221099587873298
0.1962114241422275 0.2022141502804408 -0.2932312193882537 0.6182364283621171
0.1895518709513423 0.1979549059552820 -0.2932031967857505 0.6201859912633866
0.1848626180475526 0.1975357889472049 -0.2938926579362742 0.6201217937761364
0.1898723824965061 0.2009843069780944 -0.2940040047407318 0.6196320159271989
0.1733431836703952 0.1858540375011967 -0.2933068642649536 0.6238195774463962
0.1939448804010136 0.2022355472179142 -0.2937306590255491 0.6203204583862838
0.1787355498074453 0.1925387376220429 -0.2938002843047537 0.6187668466221198
0.1804097337649721 0.1909278036565505 -0.2931143727748435 0.6195954661044757
0.1964133797842117 0.2060449465505002 -0.2945397795929277 0.6174584186802261
0.2001469579939312 0.2057187315275613 -0.2938734925461606 0.6179598185952858
0.1867030835075615 0.1948461926820134 -0.2929021321852494 0.6200023041254926
0.1806793372459693 0.1961402467803072 -0.2942483837543299 0.6197501699732370
0.1656736700657636 0.1796744171579530 -0.2935706435448255 0.6193971729145579
0.2070627898284359 0.2128829818022579 -0.2959259978742158 0.6131192751215329
0.2001570001660735 0.2068273112586002 -0.2943276046447169 0.6180207637025839
0.1975372695672231 0.2089575103544502 -0.2952490593830001 0.6195109595144997
0.1846761097795355 0.1957329271364225 -0.2934915352884085 0.6193829266658437
0.1917838044221592 0.2049599755231404 -0.2947838242040307 0.6191935545765986
0.1752224609457111 0.1886556039156167 -0.2935905323074849 0.6223194958600825
0.2255358938619542 0.2275752177215627 -0.3043017643478470 0.6182891151322325
0.2329336171589945 0.2355008466623277 -0.3127840548008419 0.6724809131762441
0.2386840866542728 0.2353584515868052 -0.3174262302071844 0.7124721053860634
0.2371144295922979 0.2349340294104237 -0.3152459398792619 0.7019284038473906
0.2297493130569647 0.2306014963144304 -0.3082214758414549 0.6396949282180940
0.2341326076503470 0.2348540119990525 -0.3131482050215799 0.6787922696116970
0.2148196634738574 0.2190268132630830 -0.2983816529267344 0.6105909472727672
0.2499575416422875 0.2381136784513666 -0.3344057670199769 0.7952105079930520
0.2372347466798214 0.2357291904535654 -0.3161498795798870 0.7028611274018036
0.2246813785696708 0.2278149971766390 -0.3043047896880779 0.6182891151322326
0.2398047284643078 0.2374224498716725 -0.3199841542652144 0.7259521709412748
0.2468259106313243 0.2377697353918032 -0.3290715295077644 0.7598891342250549
0.2437629294732251 0.2372143088765467 -0.3236968349618772 0.7388505599494158
0.2201002868823003 0.2232714896543281 -0.3007561860395901 0.6091291359656716
0.2363412703970195 0.2365246184743470 -0.3160015470781873 0.7028611274018037
0.2314291046287193 0.2329312831158024 -0.3102567882040347 0.6576066618082245
0.2446708798151101 0.2376468308299764 -0.3257179592580177 0.7423051181377845
0.2339641599296489 0.2333870382162893 -0.3122265564490069 0.6724809131762441
0.2407669475160738 0.2365475992886979 -0.3202575877166103 0.7259521709412752
0.2278008983817640 0.2305334088569411 -0.3069853116630477 0.6371706370583302
0.2290375883635229 0.2331239525191786 -0.3090228696487110 0.6450452897817299
0.2110158146560324 0.2156023609820978 -0.2967173261459984 0.6126322302100607
0.1444449147875460 0.1668564150123019 -0.2957697674100279 0.6387487305975046
