ply
format ascii 1.0
comment object: PointCloud
element vertex 621
property double x
property double y
property double z
property double smooth_sigma
end_header
0.0849437148318009 -0.0611975668786697 0.3980933602091047 0.9972777997986066
0.0939402357345283 -0.0709777142623251 0.3999672358384256 0.9917144621655636
0.0911516006254291 -0.0679261111247316 0.3993569723836884 0.9931844471628978
0.1077343980674342 -0.0886839791324515 0.4023749857488893 0.9364045195679732
0.0939913955125304 -0.0710419475209044 0.3999769090253264 0.9916693182176387
0.0950100361794184 -0.0721796028657257 0.4001966203002656 0.9910740268665209
0.1046286806208208 -0.0844209697445881 0.4019167569851176 0.9614005327423766
0.0963824994958556 -0.0737518596000289 0.4004821536713564 0.9903583692505699
0.1066084607638745 -0.0870218081441335 0.4022360737611057 0.9463204252833834
0.0915642789049880 -0.0683848397031351 0.3994468943200429 0.9929343767834479
0.1041439031366839 -0.0837864248137148 0.4018373731400343 0.9661374598557353
0.1062975687418918 -0.0865708337412244 0.4021953363823978 0.9494546100094199
0.0875999485493323 -0.0640387976220651 0.3985827291056137 0.9956914237045299
0.0865034941262082 -0.0628381885069273 0.3983459180209444 0.9964762797201790
0.1009753787322987 -0.0796311623090407 0.4013148264646707 0.9785214269631145
0.0904311520977887 -0.0671436740308062 0.3991998969399488 0.9936303791797297
0.1013054696469474 -0.0800599913320449 0.4013699453625870 0.9761204624775439
0.0813580116145291 -0.0574233870363519 0.3976649985618924 0.9986885346767668
0.0899558969924203 -0.0666192785721525 0.3990953003629365 0.9937280087232384
0.0959635111989652 -0.0732160964797963 0.4004050315672424 0.9906636127342674
0.0951845937536269 -0.0723572022574706 0.4002360038451750 0.9910740268665209
0.0887252296481472 -0.0652727749674542 0.3988281874669825 0.9949094007667163
0.1100255132126714 -0.0922719797675870 0.4025726916192838 0.9173259482810943
0.0833793269518966 -0.0595506400440357 0.3978893522785945 0.9981183268611320
0.1009697484242747 -0.0796545246845750 0.4013093160668729 0.9785214269631145
0.1029045297849726 -0.0821631254674208 0.4016328309835011 0.9698277327369945
0.0881418306025493 -0.0646330597437233 0.3987010306042495 0.9952312574611382
0.1063735922437769 -0.0866678943808849 0.4022082324844646 0.9494546100094199
0.0921992548583885 -0.0690826202697743 0.3995852267789625 0.9925061843242076
0.1086566529568209 -0.0900696069616059 0.4024824491605373 0.9297208769380201
0.0843363041190248 -0.0605587113377523 0.3979957135438907 0.9973000981454043
0.0803155501140098 -0.0563261725660635 0.3975493993161589 0.9986995134122861
0.1006900753550945 -0.0792518790844878 0.4012686442531764 0.9810423980411187
0.1116009138929660 -0.0947577200126182 0.4026828040414371 0.9023974169910911
0.2373588204618765 -0.2635959832106495 0.3692183350686439 0.9989577317448390
0.2348541334486122 -0.2603455523846478 0.3712628795187221 0.9991165347532011
0.2360986611338091 -0.2619529465817384 0.3702578036116705 0.9990760191931773
0.2405618333307264 -0.2676582667659242 0.3669292742145066 0.9981180605178519
0.2154303304422859 -0.2382175172515043 0.3826019132585011 0.9997724689020681
0.2343746259163312 -0.2597367680643439 0.3716340812478867 0.9991208041641046
0.2264253656858463 -0.2507473598468629 0.3767280520853585 0.9992674619299794
0.2471296181143821 -0.2785884134583996 0.3611544478465721 0.9977212998682014
0.2448300613477867 -0.2737569895781218 0.3636765185443560 0.9978179071112968
0.2352511618332715 -0.2608483992074763 0.3709565115559032 0.9991048666871024
0.2507252704024858 -0.2855550509336896 0.3567173376158975 0.9976161223361204
0.2467311112501131 -0.2776913793469432 0.3615913410570262 0.9977185299900387
0.2383150966226301 -0.2648430952430433 0.3684300293842392 0.9985429356280671
0.2240489051172132 -0.2481074614953684 0.3781071097228799 0.9996183416164784
0.2413527253519261 -0.2686447108445180 0.3664026897325002 0.9980485635353468
0.2500745027006886 -0.2843061620942983 0.3575261612630236 0.9976679490001316
0.2316425094454046 -0.2564901684243376 0.3735707386402871 0.9991378904523897
0.2484117933018231 -0.2811080614032646 0.3595913971721839 0.9976907270017606
0.2465426023096333 -0.2772971468297797 0.3617998672328134 0.9976995711257676
0.2324498756650527 -0.2574490656859917 0.3729988198569179 0.9991389793186440
0.2283010929161678 -0.2528150095838663 0.3756242679308822 0.9991964914854694
0.2413768646939353 -0.2686778095892584 0.3663850139320003 0.9980485635353468
0.2441270131822677 -0.2723330557568289 0.3644319424098242 0.9978398568241289
0.2444312867427388 -0.2729557129796140 0.3641016825012428 0.9978340959784368
0.2482049736858831 -0.2807045137162111 0.3598450881476614 0.9976506434358412
0.2526630617283456 -0.2894202207084128 0.3543226231084856 0.9975886441984840
0.2189260157900613 -0.2422257132810261 0.3808505911785912 0.9997441288553166
0.0696578038257204 -0.0431944839120188 0.3940137384431794 0.9982840318752459
0.0749731514575846 -0.0501976589055879 0.3966756725827779 0.9987012497227548
0.0830543033964728 -0.0592123921448088 0.3978426947730409 0.9982264344437385
0.0848915720240726 -0.0611438009750852 0.3981033237289698 0.9972777997986066
0.0793948073297598 -0.0553054060763708 0.3974592511691148 0.9988217429380728
0.0705578707299502 -0.0443933777530166 0.3944918083989326 0.9983177421744303
0.0730607201859863 -0.0477472053676356 0.3958662223923022 0.9984655360741576
0.0922572164567999 -0.0691112950346982 0.3996000318098439 0.9925061843242076
0.0750735388925856 -0.0503256545820275 0.3967168293721209 0.9987002533632112
0.1036973264166707 -0.0843046335617412 0.4016524559339752 0.9661374598557351
0.1115225264240786 -0.0973410511698390 0.4024434283345193 0.8934808857690665
0.1029668389678429 -0.0832250556948295 0.4015512003241384 0.9671169525742580
0.1080669568383089 -0.0911255690399907 0.4022541615705287 0.9274197333297417
0.1074665177343457 -0.0901089636837514 0.4021751162969372 0.9314944360176737
0.0980476223570702 -0.0757335883764679 0.4008484087239145 0.9874233421515447
0.0981862262658396 -0.0758810767142611 0.4008849959180799 0.9873555672820521
0.0981825661804246 -0.0758677061955290 0.4008864468546748 0.9873555672820521
0.1123724948462654 -0.0987461952177456 0.4024953086906618 0.8864985234803855
0.1026269997963572 -0.0827157431094494 0.4015040420679202 0.9698277327369947
0.0937117635295433 -0.0706942363921978 0.3999237507393785 0.9920036360290243
0.1134597977094178 -0.1004933408609889 0.4025555186411231 0.8774367033768521
0.1289634469461619 -0.1272074983645351 0.4023787900133773 0.7562962850664053
0.1170220735395984 -0.1073551615561988 0.4025975635831505 0.8410902304394049
0.1228455727743572 -0.1175866504811082 0.4026159005164722 0.7877062870802598
0.1162333835236084 -0.1062531001831956 0.4025487615653741 0.8493489609108041
0.1356297889553850 -0.1458720993372846 0.4008661354734660 0.7716936663691746
0.1184721780372500 -0.1127018691541082 0.4023155717523403 0.8150135995200097
0.1253429185111892 -0.1282914497511720 0.4017829259189474 0.7567769177162772
0.1169720975813273 -0.1084935631477372 0.4024592855249376 0.8381629863040713
0.1222949400062269 -0.1224631300379867 0.4020479760625169 0.7695229082738756
0.1312225561228146 -0.1404812689272797 0.4010832338010033 0.7543784720593184
0.1225114958129653 -0.1234273481136863 0.4020104606397274 0.7663096525464399
0.1186011969981189 -0.1126755587678163 0.4023433857189044 0.8150135995200098
0.1134746716355666 -0.1009859283201148 0.4025412574263298 0.8766068408522367
0.1161155415906324 -0.1071682056391999 0.4024230805544987 0.8471029232949635
0.1299170949756818 -0.1377876666321447 0.4012366042015603 0.7494398205577908
0.1248906195422397 -0.1280022342530419 0.4017662391163956 0.7574726832926835
0.1252373939181153 -0.1284815784067252 0.4017511299698617 0.7567769177162772
0.1136284932806329 -0.1013269591065756 0.4025365140343465 0.8743053093134684
0.1231475570839590 -0.1245674158375239 0.4019529703422987 0.7621321697362519
0.1187587846035957 -0.1134179549828063 0.4022979002339014 0.8108046553360910
0.1281495068918786 -0.1343708719629584 0.4014205392603123 0.7520401716479027
0.1163563069884264 -0.1075729604853696 0.4024299182473334 0.8441089540400780
0.1230961699522156 -0.1245513401232242 0.4019505160055505 0.7621321697362519
0.1219985163419456 -0.1211379210648738 0.4021156017201964 0.7756755564760162
0.1280064181465721 -0.1337716678640647 0.4014707883278196 0.7504852364648840
0.1197772117653704 -0.1158159863839786 0.4022479545797615 0.7971114302921397
0.1153772756748921 -0.1051473150419250 0.4024890360693510 0.8563591903992989
0.1066102923443099 -0.0888571120293875 0.4020574612816953 0.9382022071555891
0.1316393738586215 -0.1411113822175804 0.4010527623020552 0.7566438141296339
0.1080459664484908 -0.0910967755145476 0.4022553074301038 0.9274197333297417
0.1214169506946220 -0.1204105642525383 0.4021016549352225 0.7768677444558976
0.1381450371997579 -0.1475425250241655 0.4008831073025805 0.7800137830891695
0.1303365741965189 -0.1383639027613634 0.4012168500774813 0.7494032103268508
0.1342303478646832 -0.1441714793475752 0.4009350630353759 0.7648415390292886
0.1227422513894355 -0.1201426450812518 0.4022939280065031 0.7756755564760162
0.1327102517796697 -0.1421744521611568 0.4010259589968521 0.7599552024687549
0.1285305208644926 -0.1344844466058993 0.4014481525624948 0.7519404399219425
0.1417490971982195 -0.1515327242699804 0.4007198503275695 0.8005032560424125
0.1363408682402539 -0.1467166159816831 0.4008336278708093 0.7749687070337331
0.1521764501717273 -0.1633364553278144 0.4000171510412723 0.8664168123740833
0.1226654881976226 -0.1208851497689541 0.4022098527672877 0.7756755564760162
0.1457142184003924 -0.1566408055447745 0.4004348951824125 0.8258333205770281
0.1320833593076746 -0.1393800128710668 0.4012625333916694 0.7538528873648923
0.1373749678295756 -0.1438083091197536 0.4012401016487939 0.7702254057753783
0.1467182472073622 -0.1570655818926386 0.4004464051818076 0.8309529540554649
0.1273143385511217 -0.1255830714502659 0.4023492747378353 0.7601543077858789
0.1215323648386966 -0.1163351285099125 0.4025030374558780 0.7931424270719187
0.1199789313525951 -0.1148314798206842 0.4023801815606037 0.8038194829348847
0.1457558874727549 -0.1563385892674710 0.4004675865256094 0.8255919007567863
0.1349800966679384 -0.1436679459007862 0.4010506707051170 0.7649253388299263
0.1251369256306711 -0.1231031445029469 0.4023198016067694 0.7634314560397053
0.1356830764569776 -0.1456184921315776 0.4008979121908702 0.7716936663691746
0.1399148506532051 -0.1501225539750582 0.4007375914498986 0.7910426320511260
0.1279411001033837 -0.1319897721434719 0.4016607833953337 0.7527320254788111
0.1306862628325808 -0.1385148397638450 0.4012329926314014 0.7498067087189050
0.1389926390668377 -0.1494969462703627 0.4007355784727436 0.7852463625161727
0.1260131032061147 -0.1271795643127012 0.4019764791835175 0.7574726832926834
0.1436817866135555 -0.1544798160041992 0.4005320916801305 0.8156453897752579
0.1283871925292611 -0.1296757131974496 0.4019784669214580 0.7506425841690879
0.1331715275899994 -0.1423524605826349 0.4010433631308032 0.7600349121548409
0.1346421100850376 -0.1445792772671222 0.4009250240224252 0.7667090710226920
0.1304505344782491 -0.1373366784084884 0.4013333538660648 0.7498270144234026
0.1435094800818917 -0.1529934882909348 0.4006862863291714 0.8060918882333508
0.1216532451515411 -0.1195323302129476 0.4021989583549949 0.7805581040297863
0.1338230100900631 -0.1437133665659691 0.4009509868733374 0.7638214190606711
0.1360969353140666 -0.1431490827362495 0.4012023768295914 0.7661505453535354
0.1281510883731204 -0.1332294860566720 0.4015461626859209 0.7508843813098359
0.1349837020973250 -0.1428926648129668 0.4011345494236023 0.7636362713405271
0.1400756359580536 -0.1505707504213478 0.4007015970319365 0.7944270629427939
0.1323714846996682 -0.1366728146757765 0.4015950431531940 0.7507003795621103
0.1336489297599961 -0.1372550433427492 0.4016568494690184 0.7540182331097300
0.1403422861092873 -0.1485220553461278 0.4009493264306696 0.7852463625161725
0.1283039936957400 -0.1306623501352790 0.4018528382320280 0.7499234886101952
0.1415612890137686 -0.1517410380396578 0.4006834785757467 0.8005032560424125
0.1349460223693774 -0.1442416129541916 0.4009863907297828 0.7665705233757087
0.1302663437113130 -0.1319159518878312 0.4019346629981458 0.7520380291625787
0.1246389585263628 -0.1254867704984874 0.4019986031428406 0.7610471929623879
0.1309028735153652 -0.1356834387350040 0.4015593408234585 0.7524756275223338
0.1250194099947731 -0.1270429063516865 0.4018817238300703 0.7588273437814257
0.1387676537727868 -0.1474177600157705 0.4009464622755750 0.7807101375666113
0.1195669510044173 -0.1131342054267750 0.4024799967391538 0.8108046553360910
0.1255729049808451 -0.1252472071292146 0.4021357594712779 0.7606999746547860
0.1437702615834031 -0.1543725134358317 0.4005504134795754 0.8156453897752579
0.1299489873109564 -0.1350311026440152 0.4015348867283395 0.7512821973883224
0.1310698184908741 -0.1320735220532293 0.4020132292414366 0.7529403860558520
0.1322495029999577 -0.1418265676564152 0.4010259760939773 0.7579254297195366
0.1370052462646464 -0.1385870986227856 0.4018369992050323 0.7606192093602915
0.1305332677740853 -0.1288610858457133 0.4023758434558585 0.7496681610796627
0.1435819087270879 -0.1479511217616303 0.4012987437671071 0.7948296529790569
0.1498903033310285 -0.1575420366111225 0.4007015439842156 0.8410819789387484
0.1338722805141094 -0.1343543919953143 0.4020474010935611 0.7521319853334307
0.1534096473702536 -0.1622964841199365 0.4003618355927391 0.8656469073545087
0.1614830665373931 -0.1722062063482293 0.3995707813799010 0.9257687546733283
0.1583964551138174 -0.1684260096160803 0.3998716150750168 0.9104260866738214
0.1539289426025315 -0.1629570786363849 0.4003069266002683 0.8698908175704817
0.1550829113256140 -0.1643643409350381 0.4001953181218137 0.8793088747946928
0.1501723422117406 -0.1578886620214230 0.4006823184757348 0.8445772477904406
0.2014716856001606 -0.2207320403889516 0.3890564287991459 0.9997585539548084
0.1424766333832251 -0.1473099611619181 0.4012774727000112 0.7882957660710638
0.1445245222417850 -0.1498411126853530 0.4011539149364673 0.8016598509376309
0.1663831546349888 -0.1784867720920506 0.3987026500610639 0.9626476448228363
0.1433029177781688 -0.1493395502687193 0.4011048215968150 0.7979719710228548
0.1685936436710099 -0.1807517495118140 0.3983984441619727 0.9710203752313976
0.1467577824119635 -0.1554127791299508 0.4006568110239851 0.8255919007567861
0.1591455235743072 -0.1708505754482690 0.3994721376015480 0.9218124777555504
0.1617218570742683 -0.1734692580641220 0.3992585539723304 0.9348914243982113
0.1569785268496179 -0.1669724674184571 0.3999521537999601 0.8987591698352267
0.1721286705755083 -0.1844937490777457 0.3978581992935805 0.9839758715632586
0.1524193724796930 -0.1619128463560630 0.4002877969893214 0.8635963495236776
0.1584506516799130 -0.1688581796838225 0.3997813580688445 0.9135913895396243
0.1648104222125245 -0.1766955593758459 0.3989180074187046 0.9560858456238260
0.1646946640561738 -0.1761096580294237 0.3990312238168310 0.9544537202537748
0.1500328335435422 -0.1599779929562962 0.4003262721515896 0.8496134569635658
0.1587531843680365 -0.1699007699299548 0.3995964286535649 0.9156232343299394
0.1485841919285049 -0.1587488194741897 0.4003708458332605 0.8419514950110606
0.1586665920770419 -0.1688865359732446 0.3998160721809429 0.9135913895396243
0.1380189995693369 -0.1435960877534414 0.4013222993238114 0.7714508762621910
0.1327370313544765 -0.1336346322691288 0.4020107519522654 0.7524021520035874
0.1734937825945570 -0.1860231390090821 0.3976098659067280 0.9858604221445280
0.1617238139634146 -0.1726165681051423 0.3994747833896112 0.9325771049833572
0.1706497121540441 -0.1830145719386790 0.3980668995598974 0.9808644228898145
0.1516789063336468 -0.1615334668007470 0.4002593037270836 0.8608250538301682
0.1450376575480602 -0.1541875179918424 0.4006640471731263 0.8202534509931603
0.1557591775331547 -0.1661209320332373 0.3999434092333446 0.8887084048083826
0.1539557365235528 -0.1632060443699095 0.4002646913565700 0.8712507099218906
0.1628637733417870 -0.1741295032740231 0.3992498611255985 0.9431070547246839
0.1795840309494017 -0.1926222991441109 0.3965390217319630 0.9947304773842370
0.1680852572208724 -0.1800048653914407 0.3985098180647278 0.9676885882144103
0.1659770834671693 -0.1778455380558215 0.3987884392400645 0.9614558242177875
0.1574702416194081 -0.1688784540494170 0.3996376850977469 0.9063496526620597
0.1353293343109116 -0.1386653992976487 0.4016563346184973 0.7577062044001667
0.1484081942468982 -0.1563628074986338 0.4006936402967758 0.8330128253294706
0.1398825066740146 -0.1452014730875609 0.4012983081872860 0.7774412528265515
0.1537572451005016 -0.1632303347474799 0.4002299573545713 0.8712507099218906
0.1415947219514951 -0.1492595126371753 0.4009674224448121 0.7952049548432838
0.1529306159816814 -0.1620645936534256 0.4003402035886182 0.8656469073545084
0.1374055079114928 -0.1401864698005051 0.4016766061394699 0.7623598658684451
0.1485603737721931 -0.1561138626080537 0.4007472117412988 0.8330128253294704
0.1424190467291372 -0.1494545092662437 0.4010136789830067 0.7956010913970709
0.1544476220723688 -0.1636717635368171 0.4002423624367810 0.8760488675929807
0.1522912706920546 -0.1631271532242526 0.4000608750254261 0.8656469073545089
0.1661468617030863 -0.1779296448204498 0.3987845206031784 0.9614558242177874
0.1487658188017954 -0.1559936745277978 0.4007866292661708 0.8330128253294706
0.1611325320956792 -0.1723638014608974 0.3994060333662451 0.9257687546733283
0.1476317826078790 -0.1558360114916150 0.4006848881710791 0.8268980425928516
0.1572941248868179 -0.1676786834067674 0.3998526312118724 0.9045731173951177
0.1555541984260413 -0.1665288471632227 0.3998388236972465 0.8904076467934492
0.1889097229215947 -0.2037048049604235 0.3940977937913380 0.9993568014459866
0.1765162107178771 -0.1892393346741154 0.3971101552790886 0.9918319803311773
0.1639381606668195 -0.1750948170686334 0.3991963353324747 0.9497978572610722
0.1762920448123647 -0.1889681620829899 0.3971605297046505 0.9918319803311770
0.1882537203089921 -0.2028580291762396 0.3943215797604264 0.9993462767700134
0.1579484470480602 -0.1679174687057982 0.3999071359294179 0.9052510242493226
0.1575234737350631 -0.1673669623179934 0.3999546959619229 0.9045731173951176
0.1718089664519933 -0.1840494233987937 0.3979597044057613 0.9817734528287099
0.1882844150713660 -0.2028904275127061 0.3943163069021686 0.9993462767700134
0.1921641540031129 -0.2079791797105789 0.3929314791743059 0.9996417596310612
0.1658648242875539 -0.1772886435344916 0.3988932571542276 0.9572121275136910
0.1654078178105370 -0.1768196022199481 0.3989525032803286 0.9572121275136909
0.1617009526743354 -0.1724693860166930 0.3995413858281471 0.9325771049833572
0.1612849224769138 -0.1719952765572498 0.3995744502046596 0.9257687546733283
0.1630437765529558 -0.1741007709163625 0.3993220005220239 0.9435184589606440
0.1665675335357543 -0.1781707993555941 0.3987668333087901 0.9623645899527257
0.1927551292394867 -0.2087783717522408 0.3927020688285369 0.9996810888289800
0.1893479154190804 -0.2042788956248274 0.3939419758489902 0.9994677723508680
0.1908924863167808 -0.2062983911922361 0.3933960244263242 0.9995968779214738
0.1775697165357198 -0.1903589419965068 0.3969367936139839 0.9927254058359700
0.1786230308996478 -0.1915096930621946 0.3967504228888797 0.9939501328648193
0.1841913324607888 -0.1977157942100115 0.3956221129264672 0.9977977216476442
0.1689997037548850 -0.1808568853518101 0.3984004195372537 0.9754079254286934
0.1841157955007859 -0.1976328585135721 0.3956364347417426 0.9977289968802028
0.1659100919732706 -0.1773622817559725 0.3988817567481015 0.9575281531286954
0.1957718931723494 -0.2129138653604151 0.3914823405395070 0.9997178350029116
0.1624722703890548 -0.1734144102867062 0.3994292139892006 0.9380995847510796
0.1794066812508208 -0.1923908499656846 0.3965893959663706 0.9947304773842369
0.1684249529415272 -0.1802117385385733 0.3984891376253651 0.9686017784722969
0.1807631125738863 -0.1939174336110978 0.3963098081741048 0.9956145592484392
0.1755108592583571 -0.1881028816045093 0.3973025921550751 0.9900142155100844
0.1703520893630270 -0.1824660251252052 0.3981696723585434 0.9798981808384880
0.1733779299118010 -0.1857924512860584 0.3976721204008442 0.9848139421233258
0.1831841160868054 -0.1966212686951530 0.3958084845879798 0.9969033459892664
0.1719457015662457 -0.1842017547802322 0.3979334180820824 0.9819124264603174
0.1814338604295186 -0.1946425008591170 0.3961808525698187 0.9960744922252632
0.1741814499549801 -0.1866493117512766 0.3975381442992835 0.9878936493950223
0.1851073687785250 -0.1988732727011842 0.3953311769280485 0.9982479102025532
0.1847349672938488 -0.1984030087595713 0.3954492005876786 0.9981236157287879
0.1794926832535936 -0.1924786138705703 0.3965746398828330 0.9947304773842369
0.1696932582971524 -0.1816745361977202 0.3982859421715080 0.9769336848891452
0.1836223468261949 -0.1970833712103270 0.3957363579744126 0.9975770504173284
0.2020202499045103 -0.2214777844619998 0.3888162524847068 0.9997579285323096
0.1940810770549573 -0.2105850737869182 0.3921770442225576 0.9996955909458146
0.1976400551305827 -0.2154856205281971 0.3907139839875360 0.9997391063690649
0.2029390696584012 -0.2227009044470958 0.3884099651824664 0.9998018443322089
0.1985811529234257 -0.2167798290245901 0.3903100355612343 0.9997411459705231
0.1975685096202791 -0.2153871467689541 0.3907432139071481 0.9997376057076587
0.2066062640373562 -0.2275451487800195 0.3867813378270206 0.9998505528968834
0.1937041773284896 -0.2100665688294668 0.3923302581621225 0.9996882635583397
0.0855737526435961 -0.0618607747340214 0.3981998058415100 0.9972777997986065
0.0982813183414537 -0.0760391646838081 0.4008935931888078 0.9873555672820521
0.1073488958796186 -0.0898498766806625 0.4021549069394201 0.9319788208798160
0.0921506106709380 -0.0689958974302287 0.3995765784509644 0.9925061843242076
0.0928994755337533 -0.0698172942876941 0.3997421539429319 0.9920036360290243
0.0966060238581934 -0.0740680178379973 0.4005291555033526 0.9890886149391553
0.0927801701226924 -0.0696803730398500 0.3997164291781267 0.9920564436518642
0.0908495142829488 -0.0675848485394306 0.3992902353854326 0.9932353904349819
0.0994075610578335 -0.0776823862361201 0.4010614558438131 0.9849042728163264
0.1036383577170429 -0.0841134858107891 0.4016496889280548 0.9663877363294271
0.0940306139134480 -0.0710663530793686 0.3999909400270515 0.9916693182176387
0.0869278390134079 -0.0633015026423799 0.3984282543008488 0.9964185231935666
0.0799817971867357 -0.0559328360458644 0.3975204940648993 0.9987461807907234
0.0957629190076525 -0.0730755080773677 0.4003594620201881 0.9906636127342674
0.0830072484890410 -0.0591623123893231 0.3978385547837975 0.9982264344437384
0.0780541530882988 -0.0537635003754349 0.3972338246595956 0.9988425466584315
0.0878942746503363 -0.0643546720574433 0.3986330520089377 0.9954344105340655
0.1010200499733187 -0.0799628693163531 0.4012989936470402 0.9764697035122536
0.1098418953073912 -0.0939823067423136 0.4023702963187651 0.9134258487131868
0.0979890392358508 -0.0757432692128792 0.4008124711394178 0.9874233421515447
0.0938785276624555 -0.0709056139588815 0.3999546921577849 0.9917144621655635
0.0922420927570954 -0.0690975670868901 0.3995970077853923 0.9925061843242076
0.0936244063324208 -0.0706013338034530 0.3999040227583405 0.9920036360290243
0.0840068508370746 -0.0602129412881867 0.3979742647140251 0.9976845774493914
0.0801087504722443 -0.0560746578213828 0.3975316793445378 0.9987344013607233
0.0869963018469416 -0.0633777124633385 0.3984435621601771 0.9963889299763828
0.0764288304012536 -0.0518926901125583 0.3969581763557452 0.9988719456541081
0.0863965566363332 -0.0627262484386866 0.3983185331100498 0.9964762797201790
0.0851567345043018 -0.0614214372267633 0.3981318348195118 0.9972777997986066
0.1004457115301227 -0.0792199070617017 0.4012100225099432 0.9829962291774649
0.1027603812270646 -0.0828345933719352 0.4015265448293879 0.9680726270957756
0.1043718179180986 -0.0850247896635554 0.4017686254768549 0.9576494281841121
0.1185325765310543 -0.1086700726355627 0.4027853340621583 0.8355604561165078
0.1169634217900061 -0.1037467905273800 0.4029935800266334 0.8589065826587682
0.1082087098340291 -0.0899698556339656 0.4023415921041035 0.9302183375840484
0.1095461404075670 -0.0933082828529879 0.4023578111604287 0.9158181239841148
0.1238139003971221 -0.1141360728597213 0.4034472797883376 0.7947805148694176
0.1137198255156983 -0.0988037970092950 0.4027601855007752 0.8810017119893641
0.0997760306893103 -0.0780957886489737 0.4011049638613086 0.9849042728163264
0.0967163118379817 -0.0742006572625910 0.4005467282510204 0.9890437215791323
0.1268799471822784 -0.1225384065661713 0.4027175648254387 0.7634314560397055
0.1109335391523408 -0.0937686434918042 0.4026297111610621 0.9100377512966222
0.0987705836066598 -0.0768034787985216 0.4009335399108037 0.9866045661488864
0.1034071257266203 -0.0830652981175648 0.4016866564514953 0.9671169525742580
0.1234993103913026 -0.1139386003004818 0.4033790859281366 0.7977302824374816
0.1137427159165191 -0.1007666747788515 0.4025832442405989 0.8766068408522367
0.1074344791092179 -0.0883155747798571 0.4023266994726987 0.9382022071555891
0.0996355544475506 -0.0779251054997105 0.4010811030958583 0.9849042728163264
0.1044777401800626 -0.0849357549178223 0.4018045901858120 0.9576494281841121
0.1134849054417166 -0.0993400846947999 0.4026555113769962 0.8802418604150736
0.1233307820288307 -0.1170519669269239 0.4027969643748749 0.7877062870802598
0.1158676344934264 -0.1030859325113437 0.4028045898762877 0.8632102565288905
0.1196902413469895 -0.1098198475816825 0.4029157237620932 0.8296020000449953
0.1087814001565132 -0.0904786301697149 0.4024526311372559 0.9274197333297415
0.1235300895179397 -0.1146992806937192 0.4032434155676238 0.7938093026901961
0.1197873643548125 -0.1079678212996551 0.4032064377948463 0.8365932836483794
0.1213066818379264 -0.1117371875111768 0.4030695087967742 0.8123425276077452
0.1151239962718283 -0.1004743252656830 0.4029113241512343 0.8749101645910731
0.1177897552143969 -0.1082770034328776 0.4026616668359959 0.8365932836483794
0.1124439122211664 -0.0978934321101202 0.4025685914919258 0.8886950254976917
0.1076468038437648 -0.0885557580215087 0.4023645515733721 0.9368598347455783
0.1084113910270663 -0.0912016635143418 0.4022760184150270 0.9241517861363244
0.1126612681200823 -0.0974179541145386 0.4026593213833135 0.8898329507932279
0.1190017786048577 -0.1073112807195441 0.4030766781835353 0.8390159487190619
0.1235999964955982 -0.1165250396975355 0.4029454564719072 0.7877062870802598
0.1065168220457002 -0.0871768609634948 0.4021765309094660 0.9463204252833837
0.1096254005567261 -0.0926633580983822 0.4024232711018017 0.9173259482810943
0.1038779627454289 -0.0835060403200421 0.4017848789148172 0.9666343774965791
0.1114412908711860 -0.0946945965427375 0.4026524160835184 0.9052699942507488
0.1022196293446952 -0.0815246277427765 0.4014920730472989 0.9698277327369943
0.1090363943249044 -0.0919803910491571 0.4023524170255990 0.9194480174583296
0.1155766794684712 -0.1036464850053129 0.4026786840854721 0.8626440234159741
0.1059998530877185 -0.0869049546717317 0.4020383685468037 0.9494546100094199
0.1039757417889817 -0.0837415182715293 0.4017869279257297 0.9663877363294269
0.1178882588748263 -0.1060761747651361 0.4029439168768692 0.8471029232949635
0.1208655643965945 -0.1095380010476649 0.4032914272282055 0.8265578670456861
0.1248634705976443 -0.1179869073335836 0.4030245734030702 0.7805581040297862
0.1109585361194373 -0.0941097450261697 0.4025987268078622 0.9094222101818017
0.1249287870320725 -0.1159223016200827 0.4034658479694877 0.7877062870802598
0.1283332117691110 -0.1242660276732697 0.4027264858623839 0.7606999746547861
0.1196067466069227 -0.1072880227232083 0.4032502404795462 0.8390159487190619
0.1388919956168662 -0.1409470797826068 0.4017253431089496 0.7660379037102680
0.1323819972785971 -0.1311713416585459 0.4022979001846576 0.7520078835532880
0.1234389587916467 -0.1130342998971118 0.4035382628345084 0.8028084190691577
0.1252886889858679 -0.1167833487728593 0.4034010731527993 0.7841816583809228
0.1219151751090667 -0.1107213164384990 0.4034343936794324 0.8150135995200100
0.1379618564749092 -0.1386109700903626 0.4019287199671293 0.7605556617495526
0.1186779337312101 -0.1058601140844745 0.4031819032990696 0.8461112613886085
0.1271233409232477 -0.1209456773983516 0.4031061098378114 0.7659205125669541
0.1152632822242357 -0.1005950812096515 0.4029312826438803 0.8743053093134684
0.1367001975327175 -0.1370464348004403 0.4020025928675568 0.7571287623435992
0.1347245571629565 -0.1336116238571445 0.4022427608333480 0.7524756275223337
0.1362772441086111 -0.1359175867982901 0.4021047543698038 0.7550241317499736
0.1452976315357521 -0.1502761321290221 0.4011695150421663 0.8024753982984892
0.1289409814787799 -0.1240583590860385 0.4028837394652431 0.7606999746547861
0.1280999156971910 -0.1228953904292162 0.4029316932062443 0.7610429399473474
0.1301648956473048 -0.1268392536065426 0.4026251573155684 0.7550127379534671
0.1189551904304292 -0.1063939756405767 0.4031879464543987 0.8410902304394048
0.1241511747558210 -0.1144165842469096 0.4035042536678994 0.7943620181554818
0.1270005504736045 -0.1207414335516269 0.4031199613393511 0.7669757169130555
0.1235290860298017 -0.1133400691371425 0.4035079342354473 0.8024856885334907
0.1208284722415338 -0.1090638749606063 0.4033541629197307 0.8296020000449953
0.1340606954913698 -0.1332942233505043 0.4022099667977069 0.7525879520814619
0.1414040537360918 -0.1441639635945108 0.4015627224140372 0.7772805280069860
0.1260212085300108 -0.1194112524712404 0.4030830287663181 0.7743226405810126
0.1323935911534800 -0.1300758144899586 0.4024557984239004 0.7531856285776504
0.1258278562902307 -0.1181926316460235 0.4032811094357692 0.7755493985470415
0.1148084812925984 -0.0998261629162647 0.4029052002991005 0.8766068408522367
0.1464901467536504 -0.1522229248105726 0.4010401324938298 0.8156453897752579
0.1245544331271091 -0.1154503056265188 0.4034322847307943 0.7909018911815585
0.1300756374899528 -0.1258154134536192 0.4027763300544717 0.7567769177162771
0.1428614930949343 -0.1465849666116648 0.4013996800670797 0.7852463625161726
0.1388505127829912 -0.1402640854282725 0.4018069697902570 0.7646683047840765
0.1320734315072868 -0.1292043167162460 0.4025408340503625 0.7523254054800611
0.1256475448487061 -0.1180779042130852 0.4032467393734691 0.7769034527113267
0.1245267515090246 -0.1152540028018133 0.4034641364433411 0.7931424270719188
0.1316225077554999 -0.1283102948481726 0.4026128151911887 0.7499234886101951
0.1179702413156752 -0.1047997342782360 0.4031262767450440 0.8509299478338818
0.1335780942682135 -0.1315022688187611 0.4023998181419429 0.7519404399219425
0.1232286419297162 -0.1126275303849523 0.4035482484326892 0.8041529701259873
0.1515295769420792 -0.1599735421614118 0.4005489023302901 0.8532544288719716
0.1474473681347651 -0.1536617004947385 0.4009509510052672 0.8237942709285694
0.1429566933869394 -0.1465494176261739 0.4014122702320578 0.7852463625161726
0.1485543040453668 -0.1553714825076992 0.4008423921992632 0.8295105844225610
0.1654393807356808 -0.1776983559885451 0.3987978502163095 0.9575281531286954
0.1617739259779923 -0.1738875777218614 0.3992239602394900 0.9362195124187863
0.1537034466821126 -0.1652699464760937 0.3998523978631348 0.8780157945516822
0.1614412505249289 -0.1735421653333560 0.3992621137341342 0.9348914243982114
0.1413825357572137 -0.1520405497285598 0.4006404031897118 0.8009991063662465
0.1466162611550592 -0.1577011970163185 0.4003796464889391 0.8340455192205726
0.1550017180325536 -0.1666365772898326 0.3997572976538176 0.8879480590843601
0.1499517118147807 -0.1612985469560325 0.4001320541406632 0.8545172518166837
0.1538904238149832 -0.1654783362457442 0.3998367739214161 0.8793088747946928
0.1588063819751451 -0.1706858091745022 0.3994695194965328 0.9176436054331712
0.1590452878545456 -0.1709784618346278 0.3994452645589564 0.9218124777555504
0.1666883094842747 -0.1789968788917981 0.3986527899592854 0.9626476448228362
0.1471153105776902 -0.1582664727196363 0.4003431368213961 0.8357396811573450
0.1475790056833844 -0.1587836297747583 0.4003094896772633 0.8400060772838194
0.1367398745044234 -0.1471990271783093 0.4008139219215494 0.7762802791782467
0.1500772763294463 -0.1612278820496865 0.4001511768827770 0.8545172518166837
0.1383883226127133 -0.1489123848528498 0.4007529479477339 0.7814111583059205
0.1426471985446375 -0.1533866957318348 0.4005801964511133 0.8048869047684633
0.1514792455243844 -0.1628470481910736 0.4000289920601254 0.8647543799863655
0.1557428124330951 -0.1673301771823895 0.3997182423671192 0.8941666578519113
0.2027656747411029 -0.2224778437944208 0.3884858402291103 0.9997722010980871
0.1652844956321115 -0.1775273776424449 0.3988173747098220 0.9572121275136910
0.1928318958272543 -0.2088932942391616 0.3926662278437281 0.9996810888289799
0.1794671680238943 -0.1925154275265204 0.3965615619279537 0.9947304773842369
0.1902784024414939 -0.2054921455426464 0.3936175997656723 0.9995558373280313
0.1901120334505113 -0.2052679987071895 0.3936821826878292 0.9995543223085575
0.1875964531572097 -0.2020246400788371 0.3945365116074538 0.9991614253358279
0.2019171149411053 -0.2213380993805585 0.3888605108027878 0.9997585539548085
0.1896854695657423 -0.2047172454342698 0.3938275325876678 0.9995134533803252
0.1968320102147728 -0.2143789469359574 0.3910515510377082 0.9997282004217082
0.1975543130671422 -0.2153715206949986 0.3907451008211314 0.9997376057076587
0.1793532254632436 -0.1923914742907626 0.3965810165826205 0.9947304773842369
0.2015421487099464 -0.2208336749953431 0.3890257514067950 0.9997585539548084
0.1858421164288274 -0.1998052252056846 0.3951010857085572 0.9983150269915417
0.1750125522272922 -0.1877688139290884 0.3973092977518290 0.9893302385226210
0.1629277794906239 -0.1750565030167902 0.3990941609368412 0.9453144539556255
0.1801502916139683 -0.1932458655417578 0.3964452005095319 0.9951486440508127
0.1954042247094102 -0.2124131936640415 0.3916335328823932 0.9997120484910206
0.1946643553734028 -0.2113973627699508 0.3919341357088276 0.9997009533329551
0.1681783118635590 -0.1805148909887677 0.3984490995495624 0.9686017784722970
0.1842454567214543 -0.1978734850513360 0.3955484269080817 0.9979303319787761
0.1868783367157381 -0.2011022789983952 0.3947786128091871 0.9987473830376012
0.1909426319090753 -0.2063653396325360 0.3933798268537684 0.9995968779214738
0.1957399300912835 -0.2128769279332980 0.3914960854297181 0.9997178350029116
0.1927944701087742 -0.2088452033303420 0.3926792209749843 0.9996810888289800
0.1918736728350798 -0.2075996733743057 0.3930372349749943 0.9996417596310612
0.2009901852495647 -0.2200805096411462 0.3892669056586419 0.9997577510950395
0.1848969934148030 -0.1986500272294507 0.3953736406865760 0.9981236157287879
0.1763759529168342 -0.1892203821660325 0.3970808147459078 0.9918319803311773
0.1864599419145977 -0.2005755900313725 0.3949113429878968 0.9984416903174390
0.1938905872491109 -0.2103338444549085 0.3922486819435030 0.9996896156498598
0.1996637220218956 -0.2182703648656540 0.3898463806106468 0.9997486722197582
0.1704797199988214 -0.1829437852140182 0.3980689113500800 0.9808644228898143
0.1749963383034394 -0.1877366184337231 0.3973175840898656 0.9893302385226210
0.2032754976936923 -0.2231629354804865 0.3882608674445981 0.9998065367822806
0.2071761681353260 -0.2283005823712471 0.3865281240442355 0.9998531844932673
0.2032683929167280 -0.2231520669188014 0.3882638809244264 0.9998065367822806
0.2108402201112012 -0.2327908331104484 0.3848218763689604 0.9998524942427052
0.2051821800950922 -0.2256788160719703 0.3874149759218635 0.9998458822126320
0.2112176236187737 -0.2332379451063470 0.3846397836799702 0.9998458159232758
0.2068486596789129 -0.2278772091761760 0.3866754228068021 0.9998525580843790
0.1987498555777674 -0.2170133234620615 0.3902374054258393 0.9997411459705232
0.1918032916783414 -0.2075070002086235 0.3930613396390466 0.9996417596310611
0.1953515151032896 -0.2123387694510234 0.3916554495653654 0.9997120484910206
0.1991335867175283 -0.2175413673130296 0.3900727047887691 0.9997449558403243
0.1996816857778038 -0.2182936095479635 0.3898375002498669 0.9997501013433786
0.2155710489381726 -0.2383753375307827 0.3825301006777999 0.9997703557641396
0.2348181689605412 -0.2603012652630203 0.3712894833405376 0.9991165347532013
0.2054188789362745 -0.2259979417710266 0.3873122509527865 0.9998458822126320
0.2145154682123708 -0.2371408238939907 0.3830468334128552 0.9997961653537026
0.2070797309254483 -0.2281745490370270 0.3865712291633392 0.9998531844932673
0.2126961959498219 -0.2349912785492581 0.3839278385315253 0.9998163042162664
0.2056157117440799 -0.2262610232138021 0.3872257752435058 0.9998481017652550
0.2063150441948627 -0.2271735983895729 0.3869127657513495 0.9998505528968835
0.2270192232527149 -0.2514019519498216 0.3763795428088521 0.9992134079045271
0.2051234320651480 -0.2256085829466773 0.3874440842725460 0.9998458822126320
0.2086864659035768 -0.2301694980968734 0.3858320939254811 0.9998554426708164
0.2196230482559268 -0.2430154302414487 0.3805018654461169 0.9997112376439841
0.2074331018407769 -0.2286178036542152 0.3864096661943378 0.9998536726686075
0.2301733866831854 -0.2548740302408510 0.3744740299711735 0.9991846712675110
0.2355831230509864 -0.2612759806057152 0.3706881951690923 0.9990920568591430
0.2032062035362427 -0.2230644837102043 0.3882913666447453 0.9998075865262309
0.2159309239404132 -0.2387925006169705 0.3823519724366468 0.9997668284630965
0.2084477911978907 -0.2298735232539434 0.3859423057252999 0.9998552183407001
0.2278899534444293 -0.2523616775042870 0.3758692352907352 0.9992069234584190
0.2158521449757068 -0.2386976653196437 0.3823897237438461 0.9997668284630965
0.2307033953956197 -0.2554570059790802 0.3741482044987064 0.9991791710934406
0.2228157410196057 -0.2466585836594122 0.3788239542785873 0.9996485588385117
0.2012935167387447 -0.2204902675521407 0.3891345006193849 0.9997585539548084
0.2183582905582825 -0.2415699701160276 0.3811374889045184 0.9997473316747132
0.2097436023179105 -0.2314733582657191 0.3853434276101118 0.9998556229833466
0.2240679972526121 -0.2481197287931630 0.3780970670784405 0.9996183416164784
0.2128739924669083 -0.2352000838328082 0.3838405991808345 0.9998155439217481
0.2205642683826192 -0.2440862446554908 0.3800154949825362 0.9997042097847206
0.2222334907328055 -0.2459851466869157 0.3791520083262327 0.9996817846321659
0.2023400202333917 -0.2219060292142554 0.3886744101099516 0.9997600819984296
0.2108738159293466 -0.2328277137794010 0.3848046033530529 0.9998524942427052
0.2240021233658451 -0.2480526105398231 0.3781343473195306 0.9996183416164784
0.2228732443489451 -0.2467268626591124 0.3787921744499451 0.9996441918549365
0.2376405207826504 -0.2639632725075159 0.3689846534522713 0.9988878668976983
0.2127128493672231 -0.2350089223919170 0.3839181530008789 0.9998163042162664
0.2274966034991068 -0.2519282188708124 0.3761004689500241 0.9992069234584190
0.2256196708878972 -0.2498532664691507 0.3771956171932195 0.9993741949787792
0.2192254563189016 -0.2425624656540451 0.3807006113017842 0.9997213679861291
0.2182121199090824 -0.2414058525318884 0.3812111216736619 0.9997517408902517
0.2117436823752478 -0.2338592885386086 0.3843859717659837 0.9998313595751216
0.2136273951560174 -0.2360950102244004 0.3834788689094582 0.9998048600471859
0.2082685872889983 -0.2296518882246600 0.3860250211171034 0.9998552183407001
0.2164662617132863 -0.2394068508103382 0.3820841951032110 0.9997640971401139
0.2143892368007993 -0.2369940399633434 0.3831087426397976 0.9997961653537026
0.2166141872774806 -0.2395774445313053 0.3820106971323749 0.9997606851884684
0.2036195425771050 -0.2236147562041955 0.3881084046487651 0.9998225768956754
0.2310557646344307 -0.2558430334790264 0.3739332865320961 0.9991606858916331
0.2270983607483001 -0.2514894249537015 0.3763329869034215 0.9992134079045271
0.2235105522193447 -0.2474759473283930 0.3784208505302197 0.9996419092057279
0.2007874405779300 -0.2198026250618190 0.3893559698408841 0.9997577510950394
0.2314763230049398 -0.2563071225122154 0.3736731637639990 0.9991436218510216
0.2268228225349606 -0.2511855977898367 0.3764943483893214 0.9992220450539006
0.1978630585651240 -0.2157926136420770 0.3906178743778701 0.9997391063690647
0.2113789693897755 -0.2334288550581184 0.3845619747765500 0.9998421256312869
0.2097744524784388 -0.2315117139473807 0.3853293867156734 0.9998556229833466
0.2071837722198505 -0.2283025261801626 0.3865232616348967 0.9998531844932673
0.2237196622393699 -0.2477184897733091 0.3782992002737779 0.9996419092057280
0.1695621476898749 -0.1819000499313572 0.3982332840385627 0.9769336848891452
0.1769668759008245 -0.1898088016342790 0.3969982581314491 0.9923118171903687
0.1837554045813423 -0.1973154044835343 0.3956571323499380 0.9977110297932998
0.1804977988786698 -0.1936385316253862 0.3963593912323400 0.9953159985998535
0.1852609635551774 -0.1990936591595093 0.3952673673848870 0.9982479102025532
0.1771664233836904 -0.1900405262214925 0.3969575767259544 0.9927254058359704
0.1649596144214530 -0.1771077249431436 0.3988670759804627 0.9568921776746180
0.1684683102495706 -0.1807652973776689 0.3984029948357742 0.9710203752313976
0.1655036788507920 -0.1776493346416922 0.3988049883802688 0.9575281531286954
0.1717476384439303 -0.1842619597408158 0.3978661268275142 0.9819124264603174
0.1669421771603941 -0.1792097617180920 0.3986193904696583 0.9641825642458338
0.1616118380206582 -0.1736252026829353 0.3992451190327695 0.9362195124187863
0.1960225532219017 -0.2132596075933303 0.3913797063008151 0.9997210401408918
0.1948666329027582 -0.2116699316443560 0.3918541255403106 0.9997046797449399
0.1928067023037832 -0.2088502083768915 0.3926810912857387 0.9996810888289800
0.1891554572410237 -0.2040264225566005 0.3940113633070564 0.9993850200386896
0.1923008501907638 -0.2081695165347933 0.3928753313810940 0.9996540609332314
0.1855676730082888 -0.1994592404174546 0.3951834016254571 0.9982479102025532
0.1953614433003749 -0.2123498833445694 0.3916513763375881 0.9997120484910206
0.1934240488615326 -0.2096876824968220 0.3924392635523314 0.9996848396465998
0.1873091564483584 -0.2016579354633062 0.3946296804578420 0.9990939205091068
0.1993368168431149 -0.2178193716724571 0.3899859814881318 0.9997480595922907
0.2147653462226183 -0.2374394324996102 0.3829271461814869 0.9997863059797758
0.2095342580816608 -0.2312187118892416 0.3854413663711894 0.9998556229833464
0.2277670472706103 -0.2522263369478129 0.3759386385952375 0.9992069234584190
0.2225236978704354 -0.2463188317124442 0.3789958142101510 0.9996595148146807
0.2183697443948676 -0.2415908845617589 0.3811321502219922 0.9997473316747132
0.3028078353308550 -0.3330723231560958 0.2866403497037474 0.9999999999999931
0.3060313558011323 -0.3357883001322557 0.2822793654356898 0.9999999999999928
0.3049924916496938 -0.3349130046773841 0.2836848071264619 0.9999999999999931
0.3033465657871925 -0.3335262303644190 0.2859115207437999 0.9999999999999931
0.3051284736609577 -0.3350275763440597 0.2835008419842354 0.9999999999999931
0.3042093371290048 -0.3342531580061509 0.2847443085689325 0.9999999999999931
0.3018653428187883 -0.3322782260755423 0.2879154137247336 0.9999999999999897
0.2662312754074345 -0.3022439636463062 0.3361219289019846 0.9976161992591280
0.2751169969390549 -0.3097413483657890 0.3241022768183492 0.9999664514516339
0.2770966046381232 -0.3114093037135411 0.3214241420812910 0.9999925428377421
0.2685394010302949 -0.3041931552314159 0.3329999976333726 0.9976204583890248
0.2735536416963085 -0.3084239783508851 0.3262172607069095 0.9998700969508740
0.3009181557268717 -0.3314801734753828 0.2891968288632935 0.9999999999999897
0.2786349531375496 -0.3127054350458359 0.3193429652678223 0.9999949760969952
0.2808561944366512 -0.3145769413341051 0.3163379279222111 0.9999951023661061
0.2754344535660760 -0.3100088332295217 0.3236728028383313 0.9999838408436682
0.2560229053794851 -0.2932648265214685 0.3498853303085270 0.9975441887370562
0.2439244666751846 -0.2720612006068922 0.3645769804467237 0.9978398568241289
0.2462452300519135 -0.2766810385318917 0.3621235968203331 0.9976982332841541
0.2475802688511038 -0.2794763815967144 0.3606054450224254 0.9977252655208296
0.2526666357986552 -0.2892961196847967 0.3543052014091398 0.9976004265240759
0.2458796790168935 -0.2759103960130819 0.3625344382535804 0.9976970985724832
0.2476705650509301 -0.2796622608746054 0.3605005440154338 0.9977110126651100
0.2478185417972101 -0.2799719598001238 0.3603311498815971 0.9977022521160662
0.2466717179457883 -0.2775779312656327 0.3616444710313174 0.9976995711257676
0.2411600029213964 -0.2684123363911374 0.3665269534609388 0.9980605757521734
0.2407263035900458 -0.2678727243978045 0.3668152599134915 0.9980828184668501
0.2467423093378953 -0.2777221718578610 0.3615726558101712 0.9977185299900387
0.2464205241173518 -0.2770485286036720 0.3619283284107793 0.9976995711257675
0.2492687880903692 -0.2827567009722060 0.3585270163277032 0.9976713500533178
0.2476815739236319 -0.2796886744996200 0.3604897689902345 0.9976969142047545
0.2461979443703382 -0.2765762470770745 0.3621814425893889 0.9976982332841541
0.2530642367186033 -0.2898007970406092 0.3537850565669847 0.9975499864248162
0.2547292014961120 -0.2918765814134804 0.3516032872053418 0.9975469876402230
0.2494523824920218 -0.2831101361979785 0.3582991385073646 0.9976713500533179
0.2624091352645533 -0.2989405391961305 0.3412816528326380 0.9979268273709617
0.2661240015882793 -0.3021601072063261 0.3362679171376916 0.9976106565029457
0.2562191004399379 -0.2934757242789466 0.3496248570088569 0.9975441887370561
0.2509232137107020 -0.2859394895587441 0.3564716748661130 0.9976017902115767
0.2489728997449729 -0.2821877035738611 0.3588946313556124 0.9976760801838419
0.2480761803586648 -0.2804660503399092 0.3600102743912633 0.9976640946688913
0.2446300888332912 -0.2733629873424980 0.3638857862182114 0.9978340959784368
0.2443544112856038 -0.2728164203354100 0.3641756952742267 0.9978340959784368
0.2513459925502657 -0.2867580034491767 0.3559468616659183 0.9975844863870191
0.2497746242600694 -0.2837298393737281 0.3578987742273948 0.9976568061438250
0.2485499624440528 -0.2813748109369111 0.3594203311726204 0.9976907270017604
0.2617849859635059 -0.2983998742949840 0.3421240694389935 0.9979598632872555
0.2469317278884149 -0.2781254522648758 0.3613508123421640 0.9977371888243605
0.2439567934561316 -0.2721610742338956 0.3645241518022556 0.9978398568241289
0.2462193783174530 -0.2766258258126406 0.3621535206159160 0.9976982332841541
0.2458654535142423 -0.2758842256933466 0.3625479524369895 0.9976970985724832
0.2523399175511947 -0.2886919218602779 0.3547139230223387 0.9976004265240759
0.2498663677282045 -0.2839062888509522 0.3577847891811826 0.9976769259404096
0.2555662857751166 -0.2928019179092600 0.3504944569366517 0.9975291389818879
0.2722507022755193 -0.3073272692889873 0.3279801120422036 0.9995616343686223
0.2487049457752143 -0.2816740983984204 0.3592284925482953 0.9976760801838419
0.2481978280306295 -0.2807001612439461 0.3598592531895792 0.9976506434358412
0.2718764458372762 -0.3070104792683092 0.3284862254564386 0.9995533633189739
0.2748623969076595 -0.3095268443031153 0.3244467173102739 0.9999664514516337
0.2616664011424665 -0.2982970873232223 0.3422841223010667 0.9979678294755533
0.2648469909291848 -0.3010520279477178 0.3379912490411090 0.9977487978090764
0.2702506721694087 -0.3056379821907949 0.3306852986160342 0.9988896311665751
0.2722567594683644 -0.3073314272243765 0.3279717850826166 0.9995616343686223
0.2733349616215550 -0.3082399691159476 0.3265131386092438 0.9997893205064073
0.2670613395043351 -0.3029433981627822 0.3349989963045556 0.9975955148523858
0.2602220480608411 -0.2970456102127028 0.3442335247243529 0.9980684978418679
0.2592511214545644 -0.2962043027432991 0.3455439537326782 0.9980278346618143
0.2744954639494683 -0.3092176653512728 0.3249431249463391 0.9999664514516339
