ply
format ascii 1.0
comment object: PointCloud
element vertex 614
property double x
property double y
property double z
property double smooth_sigma
end_header
-0.1599474744156607 -0.2085459381741728 0.1678145528683836 0.9941880990860243
-0.1586069395282933 -0.2039856757650965 0.1713827532634606 0.9943275980606454
-0.1573436787594726 -0.1989119880703886 0.1754403755520602 0.9946328496469815
-0.1584202757253052 -0.2032359700541542 0.1719823216150762 0.9943731660673909
-0.1564219027430920 -0.1952098193873018 0.1784011418029504 0.9946739686975283
-0.1576308875108827 -0.2000655167802889 0.1745178544664806 0.9944624640062248
-0.1606209178638845 -0.2118936165419556 0.1655602379451439 0.9951175387237599
-0.1399384824293679 -0.1643404595254930 0.1941317857065226 0.9959252245874843
-0.1349856554209865 -0.1564003788725223 0.1974460151438785 0.9999885681946747
-0.1407384021351588 -0.1656228784978690 0.1935964548707778 0.9957640847501814
-0.1429760852774447 -0.1692103080101685 0.1920989135811642 0.9954908720896992
-0.1420652289337737 -0.1677500276311338 0.1927085004048531 0.9955954509520821
-0.1383396661818934 -0.1617772628870112 0.1952017611283116 0.9990266770432068
-0.1339186388901920 -0.1546898733920565 0.1981598991495108 0.9999813545346776
-0.1428545283400243 -0.1690154283423508 0.1921802653271049 0.9955221844327278
-0.1427350955311176 -0.1688239540861164 0.1922601954813518 0.9954622707653696
-0.1401150779520491 -0.1646235747364076 0.1940136025824217 0.9958535639223509
-0.1306576489042609 -0.1494622691362361 0.2003416522505045 0.9995817713589733
0.0196832294789896 0.0790595757978343 0.1369084676728614 0.9999946468177547
0.0172878215854600 0.0684226372571020 0.1796370210597978 0.9638906963442591
0.0187940482381893 0.0744799148071542 0.1567919187181193 0.9518698863269560
0.0190175016163465 0.0756242253011766 0.1518345450038530 0.9582554120180968
0.0180742318783958 0.0708094889209542 0.1726630207881581 0.9622674120727507
0.0188771929803523 0.0749055200942446 0.1549484154913641 0.9501376443880564
0.0186988482073091 0.0739939862413425 0.1588941671124010 0.9516385783064119
0.0160392586185441 0.0660945543043992 0.1811198398728806 0.9649078615149778
0.0158277945063071 0.0657248522120349 0.1812636439983403 0.9649078615149775
0.0186677969820760 0.0738357112673540 0.1595784978811224 0.9525380363134576
-0.1507147941017023 -0.2658915249073847 0.0530760616923353 1.0000000000000000
-0.1492882096767778 -0.2670751336658970 0.0476090972596368 1.0000000000000000
-0.1508706757015673 -0.2657621930404646 0.0536734319898905 1.0000000000000000
-0.1499898972967952 -0.2664929573865353 0.0502981082948537 1.0000000000000000
-0.1516686085191085 -0.2651001640321161 0.0567312743848700 1.0000000000000000
-0.1522981956700986 -0.2645778080787092 0.0591439816206989 0.9999999999999998
-0.1513711816700096 -0.2653469331809519 0.0555914736282824 1.0000000000000000
-0.1495348619054559 -0.2668704912114785 0.0485543192442801 1.0000000000000000
-0.1502153626952346 -0.2663058932243073 0.0511621379957612 1.0000000000000000
-0.1511843315753046 -0.2655019589927660 0.0548754257000360 1.0000000000000000
-0.1530543588534697 -0.2639504345046135 0.0620417542044230 0.9999999999999987
-0.1489241924619658 -0.2673771515179096 0.0462141085498471 1.0000000000000000
-0.1559459196023750 -0.2615513634858024 0.0731228098479276 0.9999999999992815
-0.1536430686990421 -0.2634619935900954 0.0642978113238181 0.9999999999999977
-0.1525424645708260 -0.2643751430237694 0.0600800702041243 0.9999999999999998
-0.1530344089099029 -0.2639669865836509 0.0619653019082968 0.9999999999999987
-0.1544171549015619 -0.2628197494802328 0.0672642689633332 0.9999999999999974
-0.1536227165458551 -0.2634788793795983 0.0642198176662932 0.9999999999999977
-0.1549019712857518 -0.2624175068507736 0.0691221851326206 0.9999999999999860
-0.1642508129809747 -0.2546609515360552 0.1049488823729374 0.9830833116756780
-0.1692174377582800 -0.2505356543789377 0.1239936894127711 0.9856812602692936
-0.1601687715484678 -0.2580477463232947 0.0893056473479959 0.9999998552705855
-0.1653734293769947 -0.2537295368696544 0.1092509838736169 0.9828169063073369
-0.1588802121342391 -0.2591168387307696 0.0843676225133932 0.9999999946012593
-0.1606938066350581 -0.2576121350644733 0.0913176897761367 0.9999936377554941
-0.1626766254096140 -0.2559670266461681 0.0989162655380870 0.9982719823888281
-0.1682264290467304 -0.2513598292459695 0.1201909625963441 0.9854767068450869
-0.1618822007770023 -0.2566261463572823 0.0958718640519254 0.9996899069619123
-0.1668491470610538 -0.2525054278677956 0.1149055623468761 0.9843595365782996
-0.1575571044911888 -0.2602145950979921 0.0792972018175453 0.9999999997416144
-0.1636508660912533 -0.2551587166789823 0.1026497600979321 0.9838161854796572
-0.1667442821455939 -0.2525921817249573 0.1145043364629723 0.9843595617103559
-0.1688592591443611 -0.2508335329491377 0.1226192802392709 0.9854767068446890
-0.0107501129225237 0.0196355199179762 0.1977858845534762 0.9977955661742250
-0.0213620398064480 0.0012928297205210 0.2041297307481508 0.9958972621811858
-0.0375000855138850 -0.0250346557367485 0.2174306094799835 0.9943157491578937
-0.0325766552132147 -0.0179871336531012 0.2157096510205894 0.9965781466381888
-0.0281153569445040 -0.0110077480137641 0.2125567233191377 0.9964499909684128
-0.0387650252238378 -0.0268452370434204 0.2178726165148855 0.9945987926437397
-0.0397189507778740 -0.0282068491025657 0.2182002561826305 0.9950878671857908
-0.0249555684607112 -0.0051432506161229 0.2078493543499668 0.9960892586095290
-0.0420452322874516 -0.0314325923147831 0.2188572703132906 0.9947876101846309
-0.0260024198556678 -0.0070861837680730 0.2094089263727878 0.9962294873468632
-0.0319171991958876 -0.0170431445757449 0.2154790951248286 0.9965579575945683
-0.0308161304212291 -0.0154670051385601 0.2150941538703614 0.9964895051570958
-0.0161760956944482 0.0102576715498862 0.2010235526676064 0.9959477809018341
-0.0354139633780441 -0.0220486655836378 0.2167016528968310 0.9960353570884363
-0.0254427489735521 -0.0060474470989919 0.2085751438919817 0.9961380839321384
-0.0349169864291937 -0.0213372384799243 0.2165278655779284 0.9962538332779035
-0.0438714886080393 -0.0339588143474078 0.2193643961549310 0.9945510864936201
-0.0329277140803991 -0.0184896625635369 0.2158323864920307 0.9965921031345762
-0.0228684231304859 -0.0012695518802122 0.2047399667151056 0.9960528333557545
-0.0216622017300534 0.0007738473740383 0.2043101383093531 0.9958967040735620
-0.0308235914987154 -0.0154776858823839 0.2150967636199866 0.9964895051570958
-0.0375817000642597 -0.0251514755173531 0.2174591282349956 0.9943157491578937
-0.0429730025038784 -0.0327177288993143 0.2191173852513897 0.9945510864936200
-0.0353338340968160 -0.0219339498308822 0.2166736155109815 0.9960353570884364
-0.0476569977669112 -0.0391847780133270 0.2204009255184227 0.9951118079055623
-0.0284206495560381 -0.0115743272299001 0.2130114404619814 0.9964912589317041
-0.0332598051012449 -0.0189650396537840 0.2159484905408590 0.9965543507057585
-0.0337688768184161 -0.0196937585055347 0.2161264694557747 0.9963964218252088
-0.0511922947232675 -0.0440655591694053 0.2213692790324011 0.9961386205146513
-0.0205521383281284 0.0026931557383977 0.2036429527031585 0.9959531115480005
-0.0192128167657676 0.0050088621532318 0.2028379188885051 0.9960078629714860
-0.0305059142102799 -0.0150229216733200 0.2149856454596102 0.9964493335891670
0.0063750818167273 0.0492321023911029 0.1875742453888655 0.9663334059525844
0.0058249304489213 0.0482813164294132 0.1879022339016579 0.9654151466525293
-0.0051878363436844 0.0292487672670195 0.1944678018061720 0.9999336062796308
0.0019793949525544 0.0416353626474600 0.1901948554401806 0.9777833527444196
-0.0040332299343450 0.0312441797724623 0.1937794947401268 0.9999364386032201
-0.0060202876098953 0.0278100691316767 0.1949642703991579 0.9997642560521495
-0.0073091856507960 0.0255824679612908 0.1957331766489961 0.9994733590406464
0.0079797859716271 0.0520053895527458 0.1866175739071918 0.9649081313275670
-0.0019468595032037 0.0348499082423589 0.1925356002323048 0.9985372585103256
0.0050306559383328 0.0469086303960422 0.1883757637576307 0.9649312754725519
-0.0053956125143079 0.0288897016567375 0.1945915758478469 0.9999079444669312
-0.0042277075855404 0.0309080806161033 0.1938954265620111 0.9999314909116137
0.0028191961520914 0.0430867286744309 0.1896941853397976 0.9682017270672341
0.0050716161307860 0.0469794187081570 0.1883513448507031 0.9649312754725519
-0.0027347004091244 0.0334883423117472 0.1930052872770387 0.9995821545192132
-0.0040379911952285 0.0312359508782400 0.1937823351862893 0.9999364386032201
0.0001062225340203 0.0383980978996334 0.1913115976520763 0.9923684883095798
0.0010788176198767 0.0400789616598907 0.1907317592857589 0.9771474900969422
-0.0074304292570246 0.0253729229531608 0.1958055048861643 0.9994645918149502
-0.0053624918064083 0.0289469410210959 0.1945718337149699 0.9999079444669312
0.0000144480741636 0.0382394909199434 0.1913663114544067 0.9923684883095798
0.0016722664395641 0.0411045752476396 0.1903779584058048 0.9781001495474594
-0.0020463583342511 0.0346779518316301 0.1925949189927172 0.9985372585103256
0.0040127897795570 0.0451495279016245 0.1889825922130714 0.9660782640891974
0.0143381504262679 0.0630483386650111 0.1825924376496665 0.9649048883982676
0.0153321007768709 0.0646859104876682 0.1823449144556093 0.9649048883982676
0.0116028968423634 0.0582667487608460 0.1844583969957767 0.9649048941444914
0.0095109320845447 0.0546515729112695 0.1857046648637206 0.9653924023825655
0.0097787239341059 0.0551143251448243 0.1855452405137840 0.9663276835081052
0.0129794725902065 0.0606537100618765 0.1836034005875175 0.9653923221041537
0.0094960673605185 0.0546258534515263 0.1857136559506735 0.9653924023825655
0.0123234951320863 0.0595117105732294 0.1840304987064099 0.9658663998771111
0.0106431646446120 0.0566082113532802 0.1850301506240443 0.9653923335441313
0.0129854885151284 0.0606602680743669 0.1836163200845143 0.9653923221041537
0.0096892049418960 0.0549596402981632 0.1855985051821036 0.9658664453404516
-0.0079978751193863 0.0243922074549753 0.1961440179714178 0.9989135715896834
-0.0168955324724484 0.0090142431153961 0.2014528952224109 0.9957789059342868
-0.0144086980026208 0.0133123259666525 0.1999688261896748 0.9973074177477544
-0.0251564537427703 -0.0055160893610202 0.2081486283483593 0.9960892586095290
-0.0171432846671506 0.0085860415099227 0.2016007640640261 0.9957834075336141
-0.0296088236252858 -0.0137386978672104 0.2146718240900684 0.9964910064082678
-0.0186997453119087 0.0058959770832177 0.2025294800442292 0.9959562318183893
-0.0149155725710659 0.0124362776687354 0.2002713096931264 0.9973074177477543
-0.0059776659991120 0.0278837339690863 0.1949388337652251 0.9998356876049591
-0.0187062840444615 0.0058846712357531 0.2025334121271262 0.9959562318183893
-0.0214264736442475 0.0011814231043669 0.2041684576812798 0.9958402797774328
-0.0189144062030507 0.0055248202728327 0.2026585393041011 0.9959562318183895
-0.0092081472101885 0.0223004962055399 0.1968660154542498 0.9981173036413858
-0.0195521062589459 0.0044222189475641 0.2030419003667186 0.9958984894139545
-0.0162503706482347 0.0101292988161851 0.2010678821886840 0.9959477809018341
-0.0246066782475811 -0.0044957174196553 0.2073295839753480 0.9960892586095289
-0.0205109994604013 0.0027642851617978 0.2036182268720676 0.9960070699861248
-0.0184141646278664 0.0063895431682669 0.2023591365091932 0.9958543559551134
-0.0295156156548877 -0.0136054836730305 0.2146398008598177 0.9964910064082678
-0.0080502740309082 0.0243016463496492 0.1961752777542342 0.9989135715896834
-0.0119607101613081 0.0175432289312329 0.1985081770214374 0.9977820247403588
-0.0109926473129930 0.0192163480355066 0.1979305709631388 0.9977955661742252
-0.0084773746764584 0.0235634891321687 0.1964300674349228 0.9983472345474592
-0.0209276626687669 0.0020438712322353 0.2038686552894979 0.9959527045141654
-0.0234097864529586 -0.0022743110218548 0.2055464788886013 0.9960483055314351
-0.0295174543942078 -0.0136086097033522 0.2146417703326801 0.9964910064082678
-0.0151476590099446 0.0120351544784848 0.2004098125997852 0.9973074177477542
-0.0111979917675771 0.0188614473380418 0.1980530947864773 0.9978161474318378
-0.0209617366558112 0.0019849570384964 0.2038891349181169 0.9959527045141654
-0.0186769463607172 0.0059353769248681 0.2025159021021860 0.9959562318183893
-0.0144901837057523 0.0131714915323519 0.2000174535512404 0.9973074177477543
-0.0219682790121122 0.0002446373242290 0.2044941012131521 0.9958967040735618
-0.0249046877890529 -0.0050488170908683 0.2077735531275167 0.9960892586095290
-0.0109683041142393 0.0192584204545526 0.1979160482108180 0.9977955661742252
-0.0324146314320295 -0.0177552020692592 0.2156530050355975 0.9965781466381888
-0.0135644312007532 0.0147714905273283 0.1994650595924369 0.9977104771514108
-0.0237539176565029 -0.0029130114309251 0.2060591586477210 0.9960448761984247
-0.0176688782244845 0.0076776318651216 0.2019144726175043 0.9956877602323893
-0.0234919597629932 -0.0024268229975663 0.2056688990759657 0.9960483055314351
-0.0108960948640531 0.0193832187619828 0.1978729758479685 0.9977955661742252
-0.0294960314055273 -0.0135726450760255 0.2146200501837940 0.9964910064082678
-0.0901875129693032 -0.0892216824002712 0.2184004482621867 0.9951152765343853
-0.0849652579054295 -0.0819717756214564 0.2199009202194078 0.9948542067277817
-0.0761903528247597 -0.0724315574735436 0.2203563300230038 0.9928658408330376
-0.0798310372219890 -0.0748446669908402 0.2213756180398915 0.9938554339733843
-0.0839958235987830 -0.0806260327705798 0.2201793822042323 0.9946733098070055
-0.0619021840436296 -0.0561385592863064 0.2208160788847688 0.9896490122001819
-0.0885006867208313 -0.0868798638496666 0.2188851502910905 0.9949418494386321
-0.0657749996451845 -0.0607920593999976 0.2210389059322842 0.9903714532572047
-0.0594945914142563 -0.0537561774731697 0.2213666737250576 0.9895336136152151
-0.0828419591789363 -0.0790242875086654 0.2205108051349143 0.9942348127470113
-0.0853193804545956 -0.0824633608141230 0.2197992000495689 0.9948836112602937
-0.0713649384527308 -0.0670806383489523 0.2207394797439587 0.9913777442794449
-0.0829219652062624 -0.0791353483766163 0.2204878251751489 0.9943359563381411
-0.0885620599894415 -0.0869650681158826 0.2188675150902908 0.9949418494386322
-0.0804218283114691 -0.0756647734174511 0.2212059295346705 0.9940215304415870
-0.0794854190814523 -0.0743649132170129 0.2214748746034917 0.9937827882421382
-0.0860205730256248 -0.0834367959450618 0.2195977403933015 0.9949414235619334
-0.0750436441463181 -0.0712033624320056 0.2205171156437707 0.9924435196861190
-0.0620437460324106 -0.0562786389499482 0.2207837049598689 0.9897166984432769
-0.0862208576118348 -0.0837148428425773 0.2195401961903607 0.9949979439687473
-0.0796057064050053 -0.0745318844757120 0.2214403298160284 0.9937827882421383
-0.0817103300819394 -0.0774534096272056 0.2208358404247593 0.9941267604699040
-0.0871238907475015 -0.0849684864718113 0.2192807440339807 0.9949311234466656
-0.0844699836501246 -0.0812842483308761 0.2200431842839689 0.9947639296561022
-0.0898672247635638 -0.0887770243415843 0.2184924837017467 0.9950603942683650
-0.0877133339810215 -0.0857867864923705 0.2191113897248603 0.9949470382041146
-0.0802798783816362 -0.0754677256284860 0.2212467007894075 0.9939971987921192
-0.0695731741729090 -0.0650649378450681 0.2208354580560104 0.9914258185605044
-0.0819296664012733 -0.0777578826762449 0.2207728409531497 0.9941267604699039
-0.0850092056341012 -0.0820327827241430 0.2198882965678445 0.9948542067277817
-0.0823535524217161 -0.0783463025947961 0.2206510891729658 0.9941164080229188
-0.0853402038864346 -0.0824922709535809 0.2197932157276562 0.9948836112602936
-0.0834478720534607 -0.0798653892792780 0.2203367700633805 0.9943985739660975
-0.0871868724814081 -0.0850559213973406 0.2192626486464513 0.9949883988861614
-0.0820095648576372 -0.0778687942232321 0.2207498918872908 0.9941267604699039
-0.0575702352389664 -0.0518519719833647 0.2218067567513762 0.9918725608591450
-0.0818154137850216 -0.0775992825295868 0.2208056572155982 0.9941267604699040
-0.0791980736853175 -0.0739660480664523 0.2215573960571266 0.9936918966653415
-0.0754091348542213 -0.0715948253060952 0.2204658684074375 0.9924435196861190
-0.0547924846092448 -0.0490359271988468 0.2223554028457534 0.9945234170373640
-0.0704180840167903 -0.0660154452359569 0.2207901992940343 0.9914283835408748
-0.0671085884360013 -0.0622923269741456 0.2209674782042291 0.9906587537108424
-0.0620467678382654 -0.0562816291196437 0.2207830139083970 0.9897166984432769
-0.0682779512414320 -0.0636078367007540 0.2209048382579543 0.9909945910476167
-0.0627605002810022 -0.0569878878923431 0.2206197898247598 0.9896019518719129
-0.0582436907309832 -0.0525183754581403 0.2216527435083985 0.9909058327161921
-0.0658048201801988 -0.0608256070597651 0.2210373087298259 0.9903714532572047
-0.0590097809849052 -0.0532764436821117 0.2214775455276294 0.9899073365060510
-0.0762100290797530 -0.0724526319445760 0.2203535711192651 0.9928658408330376
-0.0799133636329258 -0.0749589481638751 0.2213519722033727 0.9939253106305057
-0.0540550527100479 -0.0480178398199566 0.2221534137531188 0.9949788369720145
-0.0754561453933466 -0.0716451764653551 0.2204592768306698 0.9924435196861190
-0.0653126541905958 -0.0602719276208289 0.2210636693845794 0.9904450008761392
-0.0475862328262278 -0.0390870808792421 0.2203815422141234 0.9950688646576100
-0.0666983991118198 -0.0618308700907352 0.2209894481790629 0.9906587537108427
-0.0521439799906325 -0.0453794415839396 0.2216299540909720 0.9959724916530774
-0.0497247258900106 -0.0420394557835502 0.2209672990723205 0.9961009568920166
-0.0830452068760114 -0.0793064270729784 0.2204524267340048 0.9943688868124702
-0.0713295174746109 -0.0670407904261012 0.2207413771159005 0.9913777442794449
-0.0794058291220764 -0.0742544341373871 0.2214977316746003 0.9937448804287653
-0.0377364001618399 -0.0253729069547545 0.2175131853580787 0.9943157491578936
-0.0719922504064746 -0.0677863521938606 0.2207058767553210 0.9917767690657268
-0.0602142584679568 -0.0544683086150242 0.2212020923180311 0.9894321465096723
-0.0707885089829371 -0.0664321662295719 0.2207703569720038 0.9913137669390351
-0.0541340338413961 -0.0481268799811554 0.2221750473809738 0.9949302261400955
-0.0699722141962580 -0.0655138502263288 0.2208140829241205 0.9914263223362418
-0.0588424799829569 -0.0531108945538560 0.2215158057681004 0.9900240950089958
-0.0549016520614603 -0.0491866421402995 0.2223853047728908 0.9945234170373642
-0.0663925167019060 -0.0614867569170261 0.2210058313939886 0.9904448798175716
-0.0432408827659378 -0.0330877053725612 0.2191909625869733 0.9945510864936200
-0.0484255102344905 -0.0402457758387077 0.2206114292973272 0.9958767854466828
-0.0620110327973505 -0.0562462682411597 0.2207911861480681 0.9897166984432766
-0.0492720833084286 -0.0414145430649537 0.2208433147015279 0.9960669338625062
-0.0452618985182858 -0.0358781228821436 0.2197448629614334 0.9945827141795767
-0.0547306168761431 -0.0489505135377887 0.2223384567286058 0.9945234170373640
-0.0494196620372741 -0.0416182887169051 0.2208837387249842 0.9960669338625062
-0.0378186911018004 -0.0254906947727533 0.2175419402861624 0.9943157491578936
-0.0812810241763684 -0.0768574667959335 0.2209591483568036 0.9940705586549179
-0.0425012623027877 -0.0320649949170201 0.2189861335141935 0.9947050795730156
-0.0656471115700802 -0.0606481872120825 0.2210457556808834 0.9903714532572047
-0.0426036369228126 -0.0322068182701117 0.2190148559461496 0.9945988183834683
-0.0576693967659514 -0.0519500951510130 0.2217840793977416 0.9915353266748738
-0.0732863643424878 -0.0692422054039536 0.2206365554303716 0.9919484551571897
-0.0535191260958475 -0.0472779476024454 0.2220066187307303 0.9957662705147309
-0.0446778851926154 -0.0350718756648703 0.2195849425447446 0.9945510864936202
-0.0502591160186857 -0.0427772264411886 0.2211136728231450 0.9961481000821848
-0.0749983950737037 -0.0711548979113422 0.2205234602373765 0.9924435196861190
-0.0457598953480132 -0.0365656609396474 0.2198812842118180 0.9946872584255880
-0.1253059509746922 -0.1408849932982425 0.2039177375651980 0.9994966744275604
-0.1184867345664940 -0.1299602385264533 0.2084631679321224 0.9995076112505579
-0.1140030390019759 -0.1230877759710601 0.2108425331885448 0.9995344861093873
-0.1140958903115106 -0.1232201247443623 0.2108127875464919 0.9995344861093873
-0.1193627241705427 -0.1313636074449420 0.2078793932562698 0.9995040172378915
-0.1034509473646669 -0.1080471575157569 0.2142228486693936 0.9995757902704441
-0.1006961943425276 -0.1041206756213787 0.2151052750334444 0.9994190557859935
-0.1028845505130398 -0.1072398447063268 0.2144042819585978 0.9995748724965499
-0.1155848816895737 -0.1253425143466869 0.2103357684800385 0.9995248137529678
-0.1105525969199892 -0.1181695772601137 0.2119479058856869 0.9995468964720541
-0.1225137466701853 -0.1364116992259425 0.2057791287137657 0.9995040172049875
-0.0986370730619763 -0.1011857186678142 0.2157648634981552 0.9979328464806874
-0.1201871611392760 -0.1326843843982048 0.2073299690300580 0.9994929131716455
-0.0977725266883583 -0.0999534436050474 0.2160417983163460 0.9965934167941830
-0.1081482182063497 -0.1147424199612096 0.2127181642835357 0.9995498166997917
-0.1091037734937467 -0.1161044510744131 0.2124120457991258 0.9995448169891470
-0.0958864328558965 -0.0972663042768053 0.2166448363718647 0.9958511559397307
-0.1043377288883637 -0.1093111301068938 0.2139387868849268 0.9995655578310467
-0.1017685468242292 -0.1056491509818159 0.2147617699561472 0.9995365054066102
-0.1179125770136483 -0.1290404154390666 0.2088457952147035 0.9995111535217907
-0.1138907076752095 -0.1229276608126611 0.2108785193471866 0.9995376247525944
-0.1077425370466165 -0.1141641688822693 0.2128481273844006 0.9995466108982206
-0.1102891411034209 -0.1177940521735293 0.2120323056722296 0.9995512273380689
-0.1156586299519318 -0.1254475986455113 0.2103122120983103 0.9995281136431790
-0.1251016197004090 -0.1405576269365843 0.2040539923895599 0.9995003736359283
-0.1053187920554038 -0.1107094869695572 0.2136245238841848 0.9995659419806954
-0.1195137137164742 -0.1316054980791805 0.2077787704423513 0.9994929131713107
-0.1092436909791328 -0.1163038868776279 0.2123672223310325 0.9995448169891470
-0.0957144676995971 -0.0970213007498730 0.2166998212199515 0.9958356814160222
-0.1208201693960071 -0.1336984895116638 0.2069080979049729 0.9994891004793367
-0.1028823220066825 -0.1072366683014362 0.2144049958201379 0.9995748724965499
-0.1077725742394266 -0.1142069783298576 0.2128385089231548 0.9995495548759087
-0.1094417452357122 -0.1165861897534667 0.2123037743807552 0.9995507276313054
-0.1024434047966553 -0.1066110585001086 0.2145455935896732 0.9995621933363686
-0.0973831816670104 -0.0993987838256080 0.2161662410820316 0.9960947655531257
-0.0937219035876738 -0.0941832956969002 0.2173361418030428 0.9952169792454195
-0.0921305809041278 -0.0919187492913221 0.2178425535679238 0.9950985032141353
-0.0918738711488460 -0.0915627903857702 0.2179159351245017 0.9950904097861301
-0.0983788011042656 -0.1008175924530206 0.2158475942640132 0.9977661444370131
-0.1011174477103393 -0.1047211081734991 0.2149703356167049 0.9994440180642069
-0.0901178011590729 -0.0891249005873179 0.2184204805020999 0.9950879888794621
-0.0873856385287585 -0.0853318600872928 0.2192055408059415 0.9949883988861614
-0.1007305155254639 -0.1041695956209054 0.2150942806296889 0.9994190557859935
-0.0942098304035686 -0.0948780750529547 0.2171804839250667 0.9952428665544849
-0.0967079015535254 -0.0984366824722630 0.2163821682297012 0.9961023682674168
-0.0893216570345558 -0.0880196130658050 0.2186492504640304 0.9950019703763339
-0.0967516917964366 -0.0984990724286931 0.2163681658270188 0.9961023682674168
-0.1006913187180122 -0.1041137264674995 0.2151068365468076 0.9994190557859935
-0.0937461532976507 -0.0942178262881686 0.2173284053039739 0.9952169792454195
-0.0943786004416038 -0.0951183934025859 0.2171266434151044 0.9952428665544849
-0.0955977615982777 -0.0968550253307929 0.2167371382349726 0.9958190516526362
-0.0871820013027067 -0.0850491589450683 0.2192640481906319 0.9949883988861614
-0.1078396465621465 -0.1143025795102000 0.2128170239159189 0.9995495548759087
-0.0977012324769064 -0.0998518778475257 0.2160645856478688 0.9963488557020561
-0.0891028546978812 -0.0877158499036984 0.2187121224968937 0.9949993282677826
-0.1066515475336640 -0.1126091280260180 0.2131976035400526 0.9995687361075930
-0.0949314849111653 -0.0959057613442453 0.2169501773202850 0.9954224838660714
-0.0902415165894132 -0.0892966559085492 0.2183849302554876 0.9951152765343853
-0.0857945508630631 -0.0831230198066057 0.2196626783390982 0.9949126816505193
-0.0934512841697231 -0.0937979528278275 0.2174224714046811 0.9952089594975603
-0.0961560674212412 -0.0976504600277451 0.2165586223894182 0.9960985283796771
-0.0935018391713864 -0.0938699396072052 0.2174063439470549 0.9952169792454195
-0.0888077703827418 -0.0873061864401751 0.2187969122217208 0.9949418494386321
-0.0885202456627410 -0.0869070174477996 0.2188795301622022 0.9949418494386321
-0.0981610290706865 -0.1005071925607786 0.2159173518989007 0.9975617600099406
-0.0996661819986916 -0.1026525531637496 0.2154352140970477 0.9991441629177276
-0.0921837976035094 -0.0919925643403760 0.2178273203296796 0.9950985032141353
-0.0919295671647149 -0.0916400845213028 0.2178999565140324 0.9950708462425386
-0.0923223860286985 -0.0921904234995664 0.2177826501735936 0.9951795726825148
-0.0917316655932982 -0.0913654427217075 0.2179567296022036 0.9951302488920629
-0.0904246875942664 -0.0895509535661135 0.2183322955040782 0.9950897350747485
-0.0897922242115582 -0.0886729011362768 0.2185140348133522 0.9950603942683650
-0.0991283350762649 -0.1018859359889897 0.2156075001070092 0.9985030016888790
-0.0964510523850580 -0.0980707384401555 0.2164642978763778 0.9960985283796767
-0.1011343828966051 -0.1047452466868084 0.2149649108114336 0.9994440180642069
-0.0955762632751488 -0.0968243955461540 0.2167440126830007 0.9958190516526362
-0.0925740695598048 -0.0925488502456105 0.2177023193441333 0.9951926905045204
-0.0928595688825530 -0.0929553904534028 0.2176112345683189 0.9952089594975603
-0.0937718599190049 -0.0942544311794774 0.2173202042619797 0.9952169792454195
-0.0811551864187942 -0.0766827832279309 0.2209952933469362 0.9940350531390624
-0.0752497508449341 -0.0714241152960900 0.2204882164172145 0.9924435196861188
-0.0807965736271160 -0.0761849755462532 0.2210982945923619 0.9940306453579533
-0.0894518882068755 -0.0882004127995388 0.2186118291353226 0.9949757166028561
-0.0829100175492390 -0.0791187631515612 0.2204912568832644 0.9943359563381410
-0.0843210508896391 -0.0810775028616181 0.2200859647862901 0.9947639296561023
-0.0860772756571382 -0.0835155140650103 0.2195814488907211 0.9949414235619335
-0.0714405677739966 -0.0671657198706951 0.2207354285258792 0.9914363141178583
-0.0811918518516954 -0.0767336808289575 0.2209847618118895 0.9940350531390624
-0.0875131559503510 -0.0855088873248165 0.2191689034803951 0.9949680604445592
-0.0851286972581264 -0.0821986579471037 0.2198539734775656 0.9948542067277817
-0.0805743272990035 -0.0758764646326956 0.2211621285485816 0.9940087197612447
-0.0861702527715747 -0.0836445902758714 0.2195547355260319 0.9949979439687473
-0.0852071558463129 -0.0823075712276335 0.2198314375899957 0.9948542067277817
-0.0899337556332301 -0.0888693895706173 0.2184733659103025 0.9950603942683650
-0.0841201912664772 -0.0807986729022747 0.2201436616665454 0.9946733098070055
-0.0753571807215209 -0.0715391792563100 0.2204731531499024 0.9924435196861190
-0.0797590868892798 -0.0747447922193211 0.2213962813482259 0.9938202399071028
-0.0842834442577605 -0.0810252976854533 0.2200967675107015 0.9947639296561022
-0.0829430651967752 -0.0791646384573833 0.2204817646727026 0.9943359563381411
-0.0890406638343702 -0.0876295107721498 0.2187299924582562 0.9949993282677824
-0.0602638974986532 -0.0545174278567270 0.2211907403171155 0.9894321465096723
-0.0314314668985180 -0.0163478351481158 0.2153092756862183 0.9965616604555045
-0.0428311129794117 -0.0325217556909583 0.2190784049599353 0.9945988183834684
-0.0459740661477780 -0.0368613463795712 0.2199399536997587 0.9947437246584309
-0.0368292644441288 -0.0240744692697582 0.2171962026106558 0.9942901904991160
-0.0544082042304797 -0.0485053954927827 0.2222501450651728 0.9948806782905611
-0.0300118079133175 -0.0143154958933647 0.2148125512525265 0.9964910064082680
-0.0326289668407272 -0.0180620159767366 0.2157279399455724 0.9965781466381888
-0.0416218196462287 -0.0308454405910085 0.2187376490078927 0.9950789391612990
-0.0403328103850218 -0.0290580554163832 0.2183736243720315 0.9951026302078009
-0.0322809175920427 -0.0175637952106225 0.2156062566341294 0.9965781466381888
-0.0382955965430906 -0.0261733169110885 0.2177085847649015 0.9946053645121179
-0.0392067913990119 -0.0274775759680538 0.2180270027580043 0.9949322852025241
-0.0549647898997964 -0.0492738092897329 0.2224025987833257 0.9945234170373642
-0.0584127223542849 -0.0526856370846811 0.2216140874889030 0.9907018614922727
-0.0496814640042634 -0.0419797292366273 0.2209554494757190 0.9961008424859752
-0.0623724819740373 -0.0566039326241352 0.2207085260670475 0.9896163712637660
-0.0504896722004712 -0.0430955291785292 0.2211768246507296 0.9962205342122384
-0.0332633591274400 -0.0189701271240862 0.2159497330856679 0.9965543507057585
-0.0489743730743523 -0.0410035283888654 0.2207617687000530 0.9959677924358136
-0.0607788542671594 -0.0550269923163511 0.2210729743214100 0.9894628849535582
-0.0423111118751477 -0.0318012945365242 0.2189323909026226 0.9947050795730153
-0.0373366112235297 -0.0248006651861706 0.2173734862405383 0.9943157491578936
-0.0467772311389166 -0.0379701844780799 0.2201599484222988 0.9950688646576101
-0.0533015353584004 -0.0469775451053239 0.2219470187104106 0.9959312532556697
-0.0569042493004416 -0.0511929598458539 0.2219590617748698 0.9936377212237042
-0.0610216387520530 -0.0552672345121278 0.2210174516864520 0.9894628849535581
-0.0359639994215979 -0.0228359634015192 0.2168938504598285 0.9956318280362985
-0.0421469549195362 -0.0315736534988842 0.2188860102604226 0.9947876101846309
-0.0452086660414558 -0.0358046383334851 0.2197302924920003 0.9945827141795767
-0.0525106658638734 -0.0458856825815856 0.2217303925828848 0.9959724916530774
-0.0454765533527992 -0.0361744766340798 0.2198036651149940 0.9946872584255878
-0.0356889234303051 -0.0224422321910075 0.2167977325778334 0.9958071021579468
-0.0476726524504233 -0.0392063906589516 0.2204052135079005 0.9951118079055623
-0.0585128239208609 -0.0527846904485530 0.2215911951568381 0.9904396218890447
-0.0908399105887477 -0.0901274104497675 0.2182129801272884 0.9950642810312200
-0.0948407778869995 -0.0957765194673296 0.2169791887185555 0.9953744215273064
-0.0841620780270673 -0.0808568182205500 0.2201316306633890 0.9947331292448321
-0.0921267850884640 -0.0919136506764435 0.2178434922784797 0.9950985032141353
-0.0891359363493798 -0.0877617772617526 0.2187026165056608 0.9949993282677826
-0.0835381820832689 -0.0799907537224517 0.2203108304992640 0.9945651951818831
-0.0706951176224515 -0.0663271027369057 0.2207753596076508 0.9913137669390351
-0.0922905415686783 -0.0921449569357791 0.2177929170272734 0.9951528551028985
-0.0746856597794246 -0.0708199393086409 0.2205673103811567 0.9922589125555412
-0.0877174438082859 -0.0857924918747778 0.2191102090247057 0.9949470382041146
-0.0852624364088521 -0.0823843095455367 0.2198155592707221 0.9948836112602939
-0.0808523517062369 -0.0762624031951412 0.2210822744091899 0.9940659667516006
-0.0893328961922857 -0.0880352163680434 0.2186460209462154 0.9950019703763341
-0.0848510377326705 -0.0818132181056331 0.2199337291148743 0.9948244622587629
-0.0893795832504421 -0.0881000319492806 0.2186326056251724 0.9949757166028562
-0.0923668218526151 -0.0922537200956712 0.2177684543539813 0.9951795726825150
-0.0806691915277630 -0.0760081502590799 0.2211348814993123 0.9939949010118421
-0.0812145923440672 -0.0767652480149276 0.2209782302463069 0.9940350531390624
-0.0865741496381203 -0.0842053035941455 0.2194386911797283 0.9949833967756195
-0.0670879730012161 -0.0622691349157728 0.2209685823771663 0.9906587537108424
-0.0748461437827462 -0.0709918274788198 0.2205448081347090 0.9922589125555412
-0.0722485271271916 -0.0680746585507189 0.2206921488574479 0.9918300690267056
-0.0685040031122204 -0.0638621407808399 0.2208927295513421 0.9909945827156988
-0.0749764316931297 -0.0711313737892488 0.2205265398304172 0.9923960678866460
-0.0665050082147566 -0.0616133081997007 0.2209998062914718 0.9905172498718821
-0.0671442308807427 -0.0623324240096492 0.2209655689234490 0.9906587537108424
-0.0808879508086490 -0.0763118199150882 0.2210720496744545 0.9940507613081525
-0.1442016033826295 -0.1711750549406360 0.1912787372776731 0.9953600776073938
-0.1415368087469010 -0.1669028722418575 0.1930621358340745 0.9956528968769202
-0.1455455801395575 -0.1733297083234941 0.1903792907997882 0.9952922952571274
-0.1500955338313119 -0.1806243751643246 0.1873339801446378 0.9954630122567290
-0.1474292388594027 -0.1763496599631466 0.1891185535967995 0.9954566929307745
-0.1406234224649080 -0.1654385447788367 0.1936734029170422 0.9957960444543493
-0.1465351951065577 -0.1749162921814788 0.1897169439981407 0.9954577764846095
-0.1428845706322650 -0.1690635920304015 0.1921601595987206 0.9955221844327282
-0.1470593596293956 -0.1757566541459671 0.1893661168818403 0.9954253187456011
-0.1533377745405763 -0.1858224718711624 0.1851639197723328 0.9952269004417001
-0.1376188448502934 -0.1606216574772011 0.1956841500779583 0.9994709018744441
-0.1329824296428137 -0.1531890616336523 0.1987862668098880 0.9999670893500744
-0.1393785865136605 -0.1634428431888673 0.1945064849646033 0.9960857991445058
-0.1286337198251868 -0.1462177659832000 0.2016957495424476 0.9995124631395529
-0.1260376408975933 -0.1420572602006807 0.2034298209479615 0.9995003960821875
-0.1346092394578348 -0.1557969564867736 0.1976978551886400 0.9999889389788430
-0.1644421085580855 -0.2249825949731451 0.1538298638809876 0.9980725314647551
-0.1659285660685604 -0.2300365092869773 0.1492734908128381 0.9887002932184756
-0.1637288527564678 -0.2225575363239908 0.1560161800106224 0.9986100888171252
-0.1713157003982534 -0.2487904241479691 0.1320458145908592 0.9872921184854591
-0.1654439510542655 -0.2283888418437972 0.1507589548544170 0.9889417843603420
-0.1627265820081240 -0.2191498309999299 0.1590884029276425 0.9994167916584249
-0.1703237141671934 -0.2449784454548248 0.1358032847892164 0.9872921172746633
-0.1694148009548109 -0.2418893290636659 0.1385875220386749 0.9881778664036426
-0.1699187788183656 -0.2436033094175735 0.1370418883084100 0.9878971805798574
-0.1632618737179727 -0.2209698147609586 0.1574475932989099 0.9992561318911065
-0.1693098343396410 -0.2415324497802818 0.1389092742229831 0.9880387825160678
-0.1653878469192170 -0.2281980896797028 0.1509309282303890 0.9890192433151840
-0.1629519821485174 -0.2199161881242397 0.1583974923018906 0.9993608905747640
-0.1605623140346947 -0.2116022971635735 0.1657564112254103 0.9951175387237599
-0.1645749467544608 -0.2254342427792210 0.1534226799630230 0.9967319806479903
-0.1696357071268662 -0.2426404508692811 0.1379102911618418 0.9880394120805858
-0.1665740306838649 -0.2322310579536827 0.1472949830380118 0.9890348400548659
-0.1670487336564705 -0.2338450251170808 0.1458399017528931 0.9887695093999640
-0.1680608368280296 -0.2372860775692572 0.1427375847642273 0.9883829318304542
-0.1660373464099947 -0.2304063572922263 0.1489400522774835 0.9887002932184757
-0.1649761701110493 -0.2267983959405746 0.1521928251381015 0.9907153214950077
-0.1647200925520098 -0.2259277362251410 0.1529777700253716 0.9945734304231174
-0.1651187663387147 -0.2272832203892631 0.1517557305483286 0.9896266160004872
-0.1665115581278364 -0.2320186543375946 0.1474864767476582 0.9890176851639467
-0.1701708920058885 -0.2497427169761103 0.1276522979692954 0.9862617497177747
-0.1681974842924499 -0.2377506713686809 0.1423187189411507 0.9885412254462564
-0.1672078277775232 -0.2343859380842212 0.1453522388004038 0.9886693085588819
-0.1669599748097083 -0.2335432492116978 0.1461119694981723 0.9888744739313291
-0.1650955837215994 -0.2272043999555043 0.1518267912988474 0.9896266160004872
-0.1546339427834711 -0.1879371472650478 0.1842532481167959 0.9951225265216470
-0.1574972414879816 -0.1995287485950531 0.1749471285357413 0.9945060666108386
-0.1560521891938761 -0.1937249228383487 0.1795886705494819 0.9948321734605389
-0.1580819233762611 -0.2018770312292350 0.1730691170070146 0.9942809104208845
-0.1605606906284365 -0.2115942272402323 0.1657618454860950 0.9951175387237599
-0.1507993081894868 -0.1817526957697589 0.1868629378095760 0.9953986578229020
-0.1549959232812458 -0.1894825946850108 0.1829814237467613 0.9950567296766401
-0.1577157613982911 -0.2004063993680253 0.1742452376105176 0.9944624640062248
-0.1579154018934282 -0.2012082239421252 0.1736039878009869 0.9944181641241988
-0.1547033887456103 -0.1883076740991866 0.1839210533788299 0.9951225265216468
-0.1555689058548288 -0.1917838906479056 0.1811409886070390 0.9949129516116869
-0.1558083629054799 -0.1927456327038235 0.1803718464629236 0.9949451756658698
-0.1606500606866364 -0.2120384853622583 0.1654626838649361 0.9951175387237600
-0.1574986109351866 -0.1995342487653858 0.1749427298384280 0.9945060666108386
-0.1614363620597324 -0.2147630656186462 0.1630432725190419 0.9991452945957024
-0.1590356302636818 -0.2057074444605168 0.1700057889379695 0.9942816182870879
-0.1487147740824946 -0.1784106834243065 0.1882581343800381 0.9955107629174742
-0.1562758007520936 -0.1946230236342363 0.1788704248807156 0.9947542124389789
-0.1602183037722720 -0.2098922269005867 0.1669079666220251 0.9941854208599445
-0.1500201950094793 -0.1805035888234155 0.1873844050494165 0.9954630122567290
-0.1449671707899089 -0.1724024106158136 0.1907663818984110 0.9952226004587312
-0.1613784738951119 -0.2145662635441597 0.1632207119245883 0.9991452945957024
-0.1586819636014584 -0.2042869981168964 0.1711417742457734 0.9942811849450695
-0.1563080243295214 -0.1947524445857686 0.1787669219794095 0.9947932082038368
-0.1585307848804675 -0.2036798126385591 0.1716273637125016 0.9943732321493151
-0.1575243156340160 -0.1996374876379539 0.1748601657588004 0.9945060666108386
-0.1472056469684875 -0.1759911881182051 0.1892682055259915 0.9954253187456011
-0.1478912119795339 -0.1770903144440613 0.1888093512326934 0.9954239386860115
-0.1517581583051758 -0.1832899645136880 0.1862211710732677 0.9952986286528539
-0.1575181696254819 -0.1996128031629902 0.1748799068786877 0.9945060666108386
-0.1435177405422156 -0.1700786879156555 0.1917364117961142 0.9953934163730350
-0.1521107009427686 -0.1838551756588139 0.1859852112218269 0.9953076766807339
-0.1588155187182206 -0.2048234011696673 0.1707127921939329 0.9943277852349406
-0.1455801046945488 -0.1733850565278240 0.1903561872398014 0.9952922952571274
-0.1546379470979607 -0.1880446932210728 0.1841314259419437 0.9951225265216470
-0.1588206247128398 -0.2048439085913807 0.1706963916238777 0.9943277852349406
-0.1606588027096335 -0.2120819418420112 0.1654334204230648 0.9951175387237600
-0.1568421983142543 -0.1968978706206025 0.1770511424899479 0.9947539192547553
-0.1547669103760159 -0.1885628125115472 0.1837170040264283 0.9951405927581020
-0.1533437960390882 -0.1858321258008486 0.1851598895180264 0.9952269004417001
-0.1552428540826382 -0.1904743543054139 0.1821882752430559 0.9950254560063400
-0.1404709685352208 -0.1651941330320420 0.1937754296954170 0.9957960444543493
-0.1505384564036256 -0.1813344872412195 0.1870375281808745 0.9954310616398333
-0.1368590761483884 -0.1594036077490291 0.1961926113107632 0.9998763766355444
-0.1449572297956594 -0.1723864732698465 0.1907730348605701 0.9952226004587312
-0.1546325223278257 -0.1878982670880961 0.1842973322972221 0.9951225265216470
-0.1332015116533776 -0.1535402660478394 0.1986396907980119 0.9999672265228114
-0.1525249980888735 -0.1845193942144030 0.1857079185510050 0.9952882438285409
-0.1372102326882264 -0.1599665788590806 0.1959576025463456 0.9998224656354713
-0.1433502874902677 -0.1698102277436395 0.1918484794419707 0.9954260859783949
-0.1414043182493058 -0.1666904654091911 0.1931508026996908 0.9956353817386713
-0.1470818708243901 -0.1757927449927204 0.1893510500025650 0.9954253187456011
-0.1448877962910030 -0.1722751576990895 0.1908195031203312 0.9952577280078910
-0.1484880609756098 -0.1780472075238831 0.1884098753532107 0.9954812545223428
-0.1425230854463914 -0.1684840602816768 0.1924020827632719 0.9955561524631257
-0.1384291996197594 -0.1619208014888780 0.1951418426410138 0.9990266770432070
-0.1233065338671182 -0.1376817910020722 0.2052506409776247 0.9994929131240404
-0.1263072329703060 -0.1424891838208785 0.2032500464686323 0.9995076533330494
-0.1250176226164511 -0.1404230556186683 0.2041099950198626 0.9995040193002990
-0.1317946625532997 -0.1512849846260748 0.1995809377867352 0.9998246030264023
-0.1180441932492171 -0.1292512697485111 0.2087580839746273 0.9995146452817273
-0.1277598444510909 -0.1448168818235483 0.2022804091377369 0.9995117622923346
-0.1365057108324599 -0.1588371392987643 0.1964290260290341 0.9999388869319497
-0.1394508254979836 -0.1635586555828556 0.1944581404713693 0.9960857991445060
-0.1335155116043388 -0.1540436309028202 0.1984296101562350 0.9999759515341472
-0.1361699325522808 -0.1582988621606024 0.1966536774780887 0.9999391310271255
-0.1266396187856590 -0.1430217100511397 0.2030284023129922 0.9995077001650403
-0.1382347881795318 -0.1616091234492352 0.1952719497498829 0.9990333426021871
-0.1202033093870428 -0.1327102545310548 0.2073192071746721 0.9994966693646000
-0.1289235811824634 -0.1466824345601014 0.2015018194099529 0.9995159455444439
-0.1421433583782241 -0.1678752837330380 0.1926562135204667 0.9955954509520824
-0.1344429649651159 -0.1555304063819431 0.1978091005088129 0.9999876444910203
-0.1158281031515736 -0.1257009724103801 0.2102348245673474 0.9995281161610818
-0.1134883860796258 -0.1223541981508518 0.2110074061562522 0.9995467607843245
-0.1419619925024078 -0.1675845211375324 0.1927775885790426 0.9956317129712748
-0.1360021368870129 -0.1580298727195528 0.1967659418492292 0.9999568350989274
-0.1283537341004214 -0.1457689287822035 0.2018830723759495 0.9995124631395529
-0.1181977353724243 -0.1294972502420895 0.2086557610767096 0.9995146452817273
-0.1332825253471751 -0.1536701369346861 0.1985854888162294 0.9999672265228114
-0.1380694267743149 -0.1613440199624692 0.1953826124714041 0.9990399169081595
-0.1272648455778407 -0.1440233797551559 0.2026115460793867 0.9995044827221321
-0.1398035642128018 -0.1641241607528993 0.1942220770633168 0.9959252245874843
-0.1247075069951977 -0.1399262339455102 0.2043167194073643 0.9995076122198605
-0.1368643381112191 -0.1594120434977440 0.1961890900861732 0.9998763766355444
-0.1267542382975289 -0.1432053511436572 0.2029519581463361 0.9995041520845899
-0.1272746574934414 -0.1440390929033950 0.2026050193811863 0.9995044827221321
-0.1314637990517395 -0.1507545863877650 0.1998023007098643 0.9996464668668555
-0.1303415863302922 -0.1489555982070440 0.2005531119767040 0.9995757970326002
-0.1396921971323200 -0.1639456188015508 0.1942966072733478 0.9959523897061996
-0.1274874995834466 -0.1443802940793367 0.2024626184886567 0.9995046347349803
-0.1226975806274065 -0.1367062120443393 0.2056565813609612 0.9994966693140681
-0.1315846964986611 -0.1509483937792330 0.1997214147530311 0.9996906969741832
-0.1220542560876191 -0.1356755684379008 0.2060854335621173 0.9994891004405725
-0.1320849009804764 -0.1517502579237803 0.1993867548980512 0.9999146050946772
-0.1425455890285511 -0.1685201379458789 0.1923870222871924 0.9955561524631257
-0.1096640159987475 -0.1169030103888163 0.2122325685181931 0.9995568115279695
-0.1020171035778259 -0.1060034308683107 0.2146821501039586 0.9995496840233491
-0.1100222075194751 -0.1174135699695871 0.2121178195625208 0.9995552981305006
-0.1042129618599001 -0.1091332936244085 0.2139787533774637 0.9995705336394773
-0.0995720227819759 -0.1025183437045058 0.2154653758082008 0.9990511569164535
-0.1107971548312096 -0.1185181656342758 0.2118695601551681 0.9995532619562968
-0.1165939171913479 -0.1269278448556154 0.2097245216470226 0.9995146436803762
-0.1237944017392021 -0.1384633844714462 0.2049254170835685 0.9995003703309280
-0.1147288181102455 -0.1241222899498020 0.2106100241680413 0.9995313445528879
-0.1229857670860332 -0.1371679036923674 0.2054644706335710 0.9994966693140683
-0.1195865341113314 -0.1317221589508106 0.2077302413051007 0.9994929131713109
-0.1157495564716499 -0.1255773114689935 0.2102828816902881 0.9995281136431790
-0.1294107377074617 -0.1474633812783400 0.2011758904538732 0.9995240546834813
-0.1127327824576969 -0.1212771738231019 0.2112494691818502 0.9995524790159336
-0.1061247166631784 -0.1118582103555453 0.2133663628485931 0.9995605477379070
-0.1063129971750748 -0.1121265756636545 0.2133060511609605 0.9995633115069489
-0.1221677843319390 -0.1358574473122419 0.2060097536067471 0.9994929131204338
-0.1332512027070618 -0.1536199244047826 0.1986064452187251 0.9999672265228114
-0.1207698346209521 -0.1336178502688324 0.2069416519217557 0.9994891004793367
-0.1324685175274678 -0.1523652231385140 0.1991300977368233 0.9999436081126396
-0.1153815779338518 -0.1250527216461467 0.2104009105703941 0.9995248097946431
-0.1070556028232546 -0.1131850473730866 0.2130681731090992 0.9995633995463231
-0.1200424965070391 -0.1324526266426129 0.2074263770145178 0.9994929131716457
-0.1269646067566018 -0.1435423772161316 0.2028117070197973 0.9995113552611804
-0.1103945121707352 -0.1179442461573985 0.2119985493660375 0.9995517728523166
-0.1042795338446590 -0.1092281818891645 0.2139574284483928 0.9995655578310467
-0.1240923976295080 -0.1389407916530076 0.2047267663169922 0.9995076113398388
-0.1236224399442604 -0.1381878914677736 0.2050400505314028 0.9995003702965580
-0.1017252200721964 -0.1055873952776279 0.2147756487587497 0.9995365054066102
-0.1134510475206792 -0.1223009764175385 0.2110193678295885 0.9995467607843245
-0.1258173296107238 -0.1417042915910459 0.2035767320862880 0.9995040222459426
-0.1231405470780086 -0.1374158702434955 0.2053612916029091 0.9994966693140683
-0.1073443919549044 -0.1135966722771581 0.2129756657502492 0.9995551198894248
-0.1158304478613331 -0.1257047124283709 0.2102332947292610 0.9995281161610818
-0.1351510905437321 -0.1566655833395871 0.1973353315126539 0.9999885681946749
-0.1266417377226309 -0.1430251033858722 0.2030269928168102 0.9995077001650403
-0.1207945674638487 -0.1336574737252946 0.2069251645794517 0.9994891004793367
-0.1285708837720112 -0.1461170353125281 0.2017377895741828 0.9995124631395529
-0.1118620305156202 -0.1200360199316098 0.2115284202698298 0.9995462386924909
-0.1196531367001458 -0.1318288586726793 0.2076858558443287 0.9994891004943998
-0.1250571156137273 -0.1404863253767342 0.2040836691487558 0.9995040193002990
-0.1103254278954251 -0.1178457746920691 0.2120206809687769 0.9995541404688986
-0.1244078950305424 -0.1394462372548639 0.2045164487698354 0.9995003707242729
-0.0997913151854500 -0.1028309110278203 0.2153951308022256 0.9991441629177276
-0.1031740282896700 -0.1076524513834866 0.2143115538469361 0.9995739483150846
-0.0948211955914434 -0.0957486216667738 0.2169854485221308 0.9953744215273064
-0.0979895242990480 -0.1002627395395903 0.2159722888791571 0.9971079234304491
-0.1011697425849639 -0.1047956465215122 0.2149535841164271 0.9994440180642069
-0.0964586688306146 -0.0980815895495514 0.2164618627973679 0.9960985283796767
-0.1070874867394797 -0.1132304930228412 0.2130579597932692 0.9995633995463231
0.0207758028949639 0.0838357828979511 -0.0903963214605469 0.9760329390151952
0.0294595131390762 0.0849042961558914 -0.0654597452354917 0.9794052649189939
0.0215426441285715 0.0845246561531459 -0.0837265283253439 0.9765027965905441
0.0482894767186041 0.0812248212486645 -0.0565221612865045 0.9786561287714194
0.0232528912470460 0.0861403991956072 -0.0682288894040134 0.9786427126883050
