ply
format ascii 1.0
comment object: PointCloud
element vertex 618
property double x
property double y
property double z
property double smooth_sigma
end_header
0.2075412011223266 0.2229735683793370 -0.3002181350752154 0.9900692858289312
0.1983452215613880 0.2164823634829550 -0.2977957524920819 0.9887358404806855
0.2024549181565157 0.2194162839766901 -0.2987506479359470 0.9891007035579449
0.1992610663307957 0.2170558421331297 -0.2979724432911625 0.9888802596145072
0.1970217106523987 0.2151972643064452 -0.2974451233982764 0.9886186291543759
0.2128559354945619 0.2268189082467327 -0.3021859625172530 0.9907995510014673
0.2070758191705063 0.2227525822911687 -0.3001225677978187 0.9899498427964264
0.2037021398054286 0.2201513278048805 -0.2990085546007521 0.9891656665068941
0.1976318233314018 0.2155517353377263 -0.2975034950790930 0.9885839655848867
0.2020372127089368 0.2189390082951359 -0.2985766805692057 0.9890736190033755
0.2094854256138532 0.2244369297898355 -0.3009507718094182 0.9902608769031485
0.1936859854620455 0.2126958946474469 -0.2969066298403923 0.9879035786011451
0.1981400467554690 0.2158646293562727 -0.2975645891282065 0.9886662988683577
0.2294060272897405 0.2364755269116822 -0.3115859534378033 0.9927990228134325
0.1916895157674655 0.2110029599152354 -0.2965619648327925 0.9874154700270730
0.1998240420887931 0.2179021534418927 -0.2981207063642152 0.9890390228317300
0.1973275248699281 0.2159563423881831 -0.2975946367034946 0.9885839655848867
0.2049375166445216 0.2217754056939528 -0.2995371842838205 0.9894200818175684
0.2009424379157486 0.2188176382216523 -0.2983791171079013 0.9890980333353998
0.2055518074984925 0.2223051513695969 -0.2997313404255905 0.9895184071419270
0.2019782997684696 0.2196499957444480 -0.2986205104919684 0.9891007035579449
0.2174883564560793 0.2300844207793418 -0.3043581203266241 0.9913420654543610
0.2155167841203829 0.2287497766774687 -0.3033912242891982 0.9912803714961644
0.2195535180221026 0.2312353732674431 -0.3052152314445792 0.9916540462260632
0.2236360602691340 0.2336825693612927 -0.3075285243182573 0.9922233216105782
0.2098655628999457 0.2250777093501100 -0.3011629161615897 0.9903320964971118
0.2193187576894141 0.2312753319065663 -0.3053102774341225 0.9916243385247511
0.2279054044045651 0.2358743861404078 -0.3104926829061170 0.9927937711756440
0.2132539857111051 0.2276118975789125 -0.3025121137212083 0.9909162778040757
0.2121776236410773 0.2267893988477430 -0.3020608306054940 0.9907995510014673
0.2098000505108261 0.2253528780602610 -0.3011251112353805 0.9903320964971120
0.2025708156398191 0.2197763119145899 -0.2988386097347941 0.9891163208208175
0.2181171062540148 0.2303607571725002 -0.3045560861255927 0.9913795761076941
0.2139347070759919 0.2278301548284402 -0.3027695286219094 0.9909856201852287
0.2258544557185063 0.2348787846248381 -0.3089803516270989 0.9924085756799876
0.2032868139933640 0.2204260234394981 -0.2990403242176914 0.9891656665068941
0.2071739159098374 0.2232473978055234 -0.3002463075192690 0.9900692858289312
0.2095672623434714 0.2252886580244752 -0.3010172452908918 0.9902608769031485
0.2212164165372391 0.2324788138920053 -0.3063448048410073 0.9917288085422128
0.2232027348599347 0.2334160561763890 -0.3072064544120175 0.9922295225681184
0.2121513429459219 0.2264035746108347 -0.3019659872735199 0.9907995510014675
0.2207646022428672 0.2320569214177827 -0.3059857173654630 0.9917288085422128
0.2148205783086727 0.2282139348747475 -0.3029877827869413 0.9911724860590871
0.2175343328376875 0.2302987133281919 -0.3044975238882181 0.9913420654543610
0.2094743021627998 0.2246619102043425 -0.3009966953909926 0.9902608769031485
0.2164499410183696 0.2295520005271832 -0.3039408733255399 0.9913293346404402
0.2242495321979741 0.2341158669445393 -0.3080144738098820 0.9922811391861917
0.2051829759873060 0.2216514689019286 -0.2995977073434116 0.9894200818175684
0.1647411308050747 0.1905547973020676 -0.2957959542490502 0.9893190826292657
0.1555767125747305 0.1828852040278821 -0.2961555905917045 0.9915550821648904
0.1566922588534350 0.1836669376597176 -0.2960638080544303 0.9907442102766614
0.1503330626887461 0.1788223285020223 -0.2965285015668279 0.9925639096090924
0.1454765103465914 0.1752043799381792 -0.2969252896556815 0.9937126419903185
0.1705138663019997 0.1945277862510862 -0.2955315704383948 0.9884528567153078
0.1562767600894211 0.1836725594619240 -0.2961692014819842 0.9907442102766616
0.1593949525622876 0.1865303559349979 -0.2960515799858273 0.9903460202908115
0.1782963358596862 0.2006506388466533 -0.2955681928506183 0.9875743249043447
0.1426971759444514 0.1728553870120000 -0.2971242411714490 0.9950892895532465
0.1765459206208937 0.1995680919089899 -0.2956015878655078 0.9877164236265464
0.1452166146313640 0.1749036952151743 -0.2969333900187170 0.9939026379672953
0.1382728940364629 0.1693127906710951 -0.2974931424748930 0.9965995856761701
0.1594260142983033 0.1860223992111191 -0.2959796037266740 0.9903460202908115
0.1290485468128900 0.1620177833593813 -0.2983174737157083 0.9988454941159428
0.1371476176392127 0.1684424359956974 -0.2975945594051319 0.9970178792001896
0.1639490219788888 0.1894439738720908 -0.2957556355289956 0.9894559057895801
0.1587969609433234 0.1859432896129689 -0.2960688872076990 0.9903460202908115
0.1579460680281400 0.1851456145488646 -0.2960992283727035 0.9906199147915931
0.1719535886448711 0.1961033460252551 -0.2956158296556194 0.9883561199315389
0.1755337369751990 0.1986488021840846 -0.2955647115404356 0.9878881925294042
0.1729645041247093 0.1965431355064203 -0.2955394123454337 0.9881495636740615
0.1501856485853668 0.1786517746871331 -0.2965280661481353 0.9925639096090924
0.1535983967521489 0.1818419953580354 -0.2963830423501299 0.9920519654352614
0.1603051489561990 0.1865477438884208 -0.2959090644234312 0.9902644491008555
0.1638676480142157 0.1900287438784411 -0.2958449298426065 0.9894559057895801
0.1413295188831190 0.1718358615092993 -0.2972475464267964 0.9955024462328986
0.1805357137768219 0.2025263490686596 -0.2956748562963543 0.9874927606708301
0.1472513270951474 0.1766832269868533 -0.2967993887957883 0.9935355968401183
0.1671427725738028 0.1921019056739241 -0.2956631999469183 0.9890792743218468
0.1507233751626927 0.1793211486431748 -0.2965359036136511 0.9925543635868628
0.1689061226102587 0.1939119107136580 -0.2956855720806043 0.9888499933471179
0.1519592274371989 0.1801552952058950 -0.2964231970680529 0.9921659801899171
0.1632096847491895 0.1887461690673531 -0.2957675885011499 0.9897494087227644
0.1680708292986920 0.1929810360659207 -0.2956642498221917 0.9890180410464531
0.1537543145309314 0.1818708512324610 -0.2963591938388324 0.9919335029023011
0.1625531658114698 0.1886545930038961 -0.2958622992987362 0.9898387920517902
0.1450413025525796 0.1746710457693459 -0.2969349746174886 0.9940889878579457
0.1359978363470050 0.1675707712537544 -0.2977008299979953 0.9970598097395558
0.1855624961841892 0.2059462903419739 -0.2957588713706734 0.9868632222062146
0.1973254472024507 0.2151271945733944 -0.2972975939800119 0.9886186291543759
0.1979012704774413 0.2156243397726249 -0.2974758494057850 0.9885839655848868
0.1696314462881577 0.1936472921105093 -0.2954633602238169 0.9887575613106364
0.1829651417376810 0.2041780662624970 -0.2957201225462598 0.9873988827677356
0.1851532012627130 0.2060062625628992 -0.2959177554962287 0.9868632222062146
0.1651191210791529 0.1901609088116138 -0.2956707775290250 0.9893190826292657
0.1897376563297006 0.2092003451630267 -0.2961531304123596 0.9870106566411443
0.1840155138629775 0.2047675203579919 -0.2956780061641847 0.9873325675994961
0.1809214546930955 0.2024805558285336 -0.2955756632887280 0.9874343894976738
0.1855448964651739 0.2060299603913558 -0.2958242702197068 0.9868632222062146
0.1680589301875022 0.1924494048338159 -0.2955396465160723 0.9889711770991439
0.1885019120893805 0.2082648881540846 -0.2960480276046654 0.9869020152364533
0.1746302496907620 0.1976435227192963 -0.2955053563949678 0.9880796456038882
0.1749817898045190 0.1978125326426718 -0.2954928829204176 0.9880796456038882
0.1917789934314929 0.2108608246203370 -0.2964558080855567 0.9874154700270730
0.1936964753834410 0.2122746518839041 -0.2966478731735913 0.9878553961480796
0.1809978859595530 0.2024453585683324 -0.2955192011405399 0.9874343894976738
0.1775562523381206 0.1999773004347637 -0.2955315953917024 0.9875793104404966
0.1606671878242991 0.1867182373192270 -0.2958749263131408 0.9902644491008556
0.2014321880120717 0.2183358334044722 -0.2983840635595948 0.9890980333353997
0.1942769831375969 0.2127429984949735 -0.2967586407904977 0.9879998182964366
0.1938850045945658 0.2125680363659579 -0.2967993247980014 0.9879035786011451
0.1800258433148858 0.2017397403390011 -0.2955246167002734 0.9874143299197723
0.1885245524750347 0.2084302834048900 -0.2961411137835994 0.9869787325278324
0.1705205376010340 0.1943984062774013 -0.2954870363611745 0.9885638505661611
0.2218568891936703 0.2326580349490169 -0.3062945054749098 0.9917715643269338
0.2315287827958684 0.2372902735169271 -0.3132580250165551 0.9925753463884206
0.2365347738127172 0.2387791259110642 -0.3178851644485992 0.9935363472657118
0.2346865909045742 0.2382441311444758 -0.3161404267055472 0.9929242343088098
0.2268379301665572 0.2353865392666873 -0.3093387227149201 0.9926123883411468
0.2322493378840441 0.2375287654967825 -0.3138640668394813 0.9924951241718032
0.2093291198050105 0.2242483934402925 -0.3008856675075113 0.9902608769031485
0.2503256245120009 0.2394616431691799 -0.3353777952280778 0.9952451799719585
0.2353440825146423 0.2384546622543871 -0.3167433088812240 0.9935363472657118
0.2213225904935153 0.2323254952094370 -0.3060549786419464 0.9917288085422128
0.2385450838966198 0.2392010569293122 -0.3200346797363675 0.9941118631611136
0.2456384149101062 0.2398711900485792 -0.3285857678665988 0.9943764232436990
0.2418866809955796 0.2397913894866838 -0.3236869171060908 0.9941809424333896
0.2147053436032963 0.2281477292166696 -0.3028740983932966 0.9911724860590871
0.2350138055077844 0.2383727321466919 -0.3164377129923858 0.9934833818614238
0.2291303287412726 0.2363311857989469 -0.3112497021601593 0.9928531184901485
0.2432221652518366 0.2398257731360918 -0.3254253416004390 0.9941910180732441
0.2315172596955994 0.2373044795031669 -0.3131632393809952 0.9926211374330960
0.2389214645493766 0.2392416575384558 -0.3204639827922351 0.9941695471367404
0.2251268679045394 0.2344669272174875 -0.3083064679352712 0.9923520567250436
0.2272734628522586 0.2355383631637964 -0.3098741318992858 0.9926827487617795
0.2053100042702786 0.2213235218579722 -0.2993999641335350 0.9894200818175684
0.1417483031632650 0.1720452128322192 -0.2971860797916644 0.9953783990435591
0.1382331024461110 0.1692614526543434 -0.2974938475427628 0.9965995856761701
0.1257449261620183 0.1594775046604914 -0.2986367295043312 0.9993056643652476
0.1360953633526732 0.1675519583833989 -0.2976811154937574 0.9970598097395558
0.1449405173729771 0.1745600806043656 -0.2969388897405708 0.9940889878579457
0.1306690598688925 0.1632346440982378 -0.2981559925149012 0.9987096039237894
0.1562460912931536 0.1832975977332761 -0.2960773713404639 0.9909169039330176
0.1525615361544783 0.1804855623117820 -0.2963408276564556 0.9921102587339249
0.1263319738903066 0.1599310802112912 -0.2985800662033288 0.9993056643652475
0.1312603920934127 0.1637172420202484 -0.2981065630117476 0.9985473866686557
0.1205226696141898 0.1554913884411095 -0.2991464109155123 0.9996023462559549
0.1477056584065813 0.1766984231087546 -0.2967207549350832 0.9932879940907546
0.1310000818413889 0.1634989336052037 -0.2981270914308000 0.9987096039237894
0.0608748926225164 0.0142844257853300 -0.5470928488340586 0.7932022515324018
0.0606244563380347 0.0092075838262762 -0.5370590497565635 0.7959756423678460
0.0615081308982948 0.0077244692222765 -0.5313198511997167 0.8182987788876160
0.0608399066041153 0.0064604085333606 -0.5316673323694894 0.8136454047001755
0.0630558922821790 0.0072053928470476 -0.5247274068001323 0.8228365031528982
0.0733664426429243 0.0395175964517444 -0.4762910422946724 0.9983359842330870
0.0719868560494113 0.0347720234280074 -0.4835595788927639 0.9981603054129060
0.0731899229745134 0.0385467476402060 -0.4782327092403486 0.9983263295890089
0.0721956682880026 0.0354176474780586 -0.4826616248444635 0.9981962528020721
0.0729293611831123 0.0377522113503881 -0.4793223060189272 0.9983029178744007
0.0728972717162732 0.0376235574396023 -0.4795423895503262 0.9982673749563318
0.0705677605692601 0.0303270724480891 -0.4898225010561076 0.9976818900888720
0.0661371262294193 0.0164344036250428 -0.5091719065249742 0.8286103932134686
0.0687576849822582 0.0246537907329531 -0.4978073050744706 0.9742299100181093
0.0674782058736371 0.0206615144014075 -0.5034672582495685 0.9007307962274609
0.0681618257535856 0.0228028727271452 -0.5004870210128839 0.9317205673176165
0.0657714537435537 0.0154028722810473 -0.5113657798295823 0.8254565344348638
0.0705457874959389 0.0302580856893799 -0.4899208048879399 0.9976818900888722
0.0697207552329918 0.0276731170438728 -0.4935611965309964 0.9975895683289887
0.0647854888993895 0.0123350501057260 -0.5158003932559116 0.8233974689820439
0.0687532780489275 0.0246451887091196 -0.4978404967711573 0.9742299100181093
0.0719462559299898 0.0346405154238556 -0.4837514688810813 0.9980207261607393
0.0734095687726410 0.0395828233444111 -0.4762935966914844 0.9983359842330870
0.0729261281574492 0.0377911697171995 -0.4791995564109292 0.9983029178744007
0.0725944716106715 0.0366265653031500 -0.4810132010798908 0.9982673749563318
0.0716367793800864 0.0336785044605214 -0.4850976571525067 0.9979896924827845
0.0671811967677219 0.0197649723243966 -0.5049387049343923 0.8836222189799690
0.0691555091483061 0.0259033677475955 -0.4960602639832400 0.9959533414238144
0.0706588754884619 0.0306131700057088 -0.4894172431818605 0.9976818900888722
0.0736694687752061 0.0479128116298354 -0.4562150017253773 0.9986504525036186
0.0736178031973039 0.0484888207753255 -0.4549157676567548 0.9986342901332617
0.0735188930594332 0.0406065978487597 -0.4739186136861215 0.9983713377241452
0.0735263393818892 0.0495251291362682 -0.4525499989305261 0.9986109424380588
0.0731484864098826 0.0539163967945164 -0.4423504955145033 0.9992576299712130
0.0738917248269181 0.0459260161203859 -0.4614021167379035 0.9986709703414627
0.0737854190061331 0.0467597492540093 -0.4590167822027172 0.9986709703414628
0.0735757802659354 0.0489546963849123 -0.4538635848318530 0.9986187453801402
0.0734113650927273 0.0508607286869142 -0.4494521754848735 0.9988523637142909
0.0740048032076523 0.0449412959404569 -0.4642218127428733 0.9986926946103073
0.0739605286248301 0.0452702373191848 -0.4632625781320519 0.9987137772444984
0.0737100910460644 0.0418603273040316 -0.4712509358634758 0.9984051119002397
0.0740627803762023 0.0441837257074341 -0.4663121068388061 0.9985760093390822
0.0732758474837919 0.0524361891556857 -0.4457905710750553 0.9992070750608213
0.0737266495995229 0.0419741016716487 -0.4710097059955697 0.9984051119002397
0.0732050762932665 0.0532576482960894 -0.4438817064769668 0.9992576299712130
0.0739013601249251 0.0431362156426737 -0.4685334609541134 0.9984364927360374
0.0738497452897713 0.0462555584599169 -0.4604573034411772 0.9986709703414627
0.0734410346516198 0.0505162713150923 -0.4502505342159865 0.9987127852199010
0.0737455293578132 0.0470742456502833 -0.4581228136843069 0.9986709703414629
0.0739501514192071 0.0436885576300586 -0.4672595699584075 0.9984954461155415
0.0738920633689668 0.0459248235079238 -0.4614130312838897 0.9986709703414627
0.0737956411769797 0.0466797799925449 -0.4592324566249472 0.9986709703414628
0.0740601091672692 0.0446588564326526 -0.4650913738049030 0.9986483892411513
0.0738839178014091 0.0430658898102477 -0.4686647978001561 0.9984364927360374
0.0735216577519682 0.0404406047975390 -0.4743894655135132 0.9984024361140922
0.0737307809471391 0.0472282647023550 -0.4577572286073888 0.9986709703414629
0.0733693463700451 0.0513501872774151 -0.4483133675425257 0.9990186746606851
0.0732824082301747 0.0523618628173768 -0.4459629523426564 0.9992070750608213
0.0738085794062443 0.0424707619107172 -0.4699705882760773 0.9984051119002397
0.0731409870337099 0.0539976562528298 -0.4421629340917507 0.9992576299712130
0.0736955523395598 0.0476213225462825 -0.4568709267004278 0.9986709703414629
0.0740546104585934 0.0444965159460423 -0.4654910347982000 0.9986009802777831
0.0735457438806905 0.0492981651087112 -0.4530795138341777 0.9986109424380588
0.0729513301502051 0.0559969685524077 -0.4375719447691669 0.9993818326329823
0.0728423613587227 0.0571874115887866 -0.4348376676650734 0.9996524803201762
0.0729765338779883 0.0557262880739035 -0.4381936789351731 0.9993424094105683
0.0729206162164157 0.0563345389864852 -0.4367965899306979 0.9993818326329823
0.0727920959685981 0.0577349117990587 -0.4335801449957413 0.9997347892719924
0.0728784516430573 0.0567945730279511 -0.4357399442916639 0.9995636141267599
0.0730423728413182 0.0550371938605602 -0.4397758592001018 0.9992853410548478
0.0729023724965421 0.0565332272417797 -0.4363402204648102 0.9994794577350280
0.0730603444696544 0.0548458873653848 -0.4402154421903793 0.9992853410548478
0.0729643999539599 0.0558571270282868 -0.4378931776663475 0.9993424094105683
0.0728568525953405 0.0570293349234280 -0.4352007480677080 0.9996524803201762
0.0728752340588430 0.0568299314044120 -0.4356587355181288 0.9995636141267599
0.0728218658085073 0.0574107976014654 -0.4343245828009190 0.9997032352520315
0.0729406314257333 0.0561119541447390 -0.4373077216379066 0.9993818326329823
0.0729328004895764 0.0561982930017585 -0.4371094208485880 0.9993818326329823
0.0611581444337177 0.0019489323390683 -0.5244851056889838 0.8265880938508864
0.0624020409021073 0.0041814270673087 -0.5235634257830990 0.8265939521408092
0.0634431575774158 0.0077901869548299 -0.5220579439086731 0.8302167230289715
0.0631084331882999 0.0058098400111569 -0.5228908769457961 0.8302167230289715
0.0634751353979187 0.0067109595260036 -0.5225396763890808 0.8302167230289715
0.0616938705029981 0.0029107836638685 -0.5240878145478464 0.8301993055877741
0.0620690356975257 0.0035774001882945 -0.5238125050624000 0.8301993055877741
0.0637834913100505 0.0089938755717753 -0.5190753811726215 0.8233192593471174
0.0629500240933141 0.0052021797939849 -0.5231402831630497 0.8228365031528982
0.0627812992199647 0.0048459568860948 -0.5232883830176898 0.8228365031528982
0.0605138194250805 0.0007916371084569 -0.5249634359155678 0.8301991659602980
0.0607370769447259 0.0011933944203556 -0.5247970118707497 0.8301991659602980
0.0562275499588970 -0.0069145326655606 -0.5281350616105491 0.8516428635544936
0.0587961464505242 -0.0022930034183062 -0.5262424769149635 0.8369817422924177
0.0596160163215021 -0.0008205970562871 -0.5256321945308488 0.8336623826119198
0.0593035935757774 -0.0013833633035834 -0.5258615699175354 0.8302068098507719
0.0586406327660401 -0.0025692339754453 -0.5263633204674136 0.8369941894831382
0.0563505076557974 -0.0051586462542765 -0.5301034504839889 0.8432194264005174
0.0582887238551502 -0.0009318195889542 -0.5296941531814550 0.8266184234129619
0.0594387254437955 0.0053282461423264 -0.5347448582048081 0.8102589280031798
0.0575338256343552 -0.0015692376218689 -0.5312532245466712 0.8266184234129619
0.0580771321740352 0.0018710459504170 -0.5342690412987179 0.8177015165708674
0.0590239999273209 0.0087638941188476 -0.5407708884590551 0.7915863135965122
0.0591550795430977 0.0023230653194839 -0.5312951843825228 0.8177015165708675
0.0588556431107459 0.0135751794374503 -0.5472115458371807 0.7932938844438242
0.0600026476250293 0.0105904167760358 -0.5413462051762288 0.7984935322180663
0.0561904347163382 -0.0058645879588661 -0.5296476857856405 0.8432194264005174
0.0393729564916078 0.1169358514468416 -0.2665552588398343 0.9978023696120590
0.0416354577602054 0.1283683514053846 -0.2459983160062214 0.8160416744583059
0.0544262724423236 0.1319463663244074 -0.2232803138140300 0.8559303872901307
0.0375804722467257 0.1072411612674790 -0.2838702459393993 0.9184381473037961
0.0569388319150791 0.1312530100867329 -0.2206978969502416 0.8582426835453416
0.0428771295646251 0.1318015543477285 -0.2391173288192803 0.8211048984995344
0.0385799231820051 0.1126884592163150 -0.2741423466734610 0.9984375209347889
0.0437494446012773 0.1333902923075059 -0.2355351275455778 0.8288778562558574
0.0487435330527772 0.1328953242244571 -0.2295901041721423 0.8422437992021939
0.0400478855707807 0.1204229261488841 -0.2603007359782289 0.9723941312432345
0.0703090588965587 0.1212381635291828 -0.2082397325072393 0.8995579054795161
0.0563895295423966 0.1340291722686832 -0.2203955576770975 0.8595343945692953
0.0631139995580350 0.1273097307226468 -0.2150124651453834 0.8571404280845020
0.0678625627619946 0.1228994377262382 -0.2109179222196987 0.8815089801788618
0.0547399771006639 0.1323668702806527 -0.2226983061397297 0.8577538701236879
0.0664604996001018 0.1240269067368154 -0.2122909171103092 0.8719405674617390
0.0608637794981872 0.1295247184945922 -0.2168320702064618 0.8587551448780337
0.0460852252120628 0.1342332062852581 -0.2311495343688949 0.8382053882507022
0.0687482781503798 0.1221061400944995 -0.2101265981739106 0.8940636890290483
0.0578545451094619 0.1318237374714148 -0.2194861742525682 0.8600126947907178
0.0508240643079238 0.1334352769125779 -0.2264585226672985 0.8521674222574696
0.0698246632144864 0.1215503344616139 -0.2087856889105697 0.8952266639335457
0.0511085917035604 0.1345672774100021 -0.2250906639131723 0.8540608090509851
0.0606506531268180 0.1297539907712253 -0.2169898378911651 0.8576406197941838
0.0647915460553752 0.1256599528200533 -0.2136521778890705 0.8653196734963927
0.0631169313784316 0.1272573618085381 -0.2150574427858562 0.8571404280845020
0.0603987335928916 0.1299251253016552 -0.2172765356409439 0.8570186978201929
0.0638677331483100 0.1265389796626043 -0.2144294848705524 0.8541051993869005
0.0594006044751336 0.1304584663174516 -0.2182131738558822 0.8588175472395811
0.0870020658768305 0.1147393693754108 -0.1862167604489022 0.9986089557164572
0.0741858483146077 0.1195583523480502 -0.2031177676062340 0.9392500080311212
0.0656318212960906 0.1248593095569873 -0.2129466535860443 0.8669563299990379
0.0786674485424585 0.1177217829925453 -0.1971139434802796 0.9855787069960493
0.0875033560879694 0.1145781855341300 -0.1856174868357417 0.9986531835501845
0.0704865860448042 0.1211207670160091 -0.2080424463471258 0.8995579054795162
0.0956737304108830 0.1121153848788935 -0.1760312374807078 0.9998963867466024
0.0835875036213294 0.1158911923219589 -0.1904609466047350 0.9978985869812588
0.0731529201536107 0.1199702108496202 -0.2045147338743993 0.9367473646981280
0.0802936744665132 0.1171243754212530 -0.1949126826478758 0.9946084584204886
0.0862528697543008 0.1149947197324112 -0.1871523451371634 0.9984082561258807
0.0733160339286705 0.1198902426682887 -0.2043076671141762 0.9357123162424148
0.0860919761453982 0.1150499209111861 -0.1873537084398889 0.9984082561258807
0.0916912022417206 0.1132810268509552 -0.1806825025007117 0.9998582139838922
0.0872855680790174 0.1146460522439370 -0.1858752321598371 0.9986313608519701
0.0843454002661756 0.1156449527232097 -0.1895349062194400 0.9980448890375341
0.0846404058064298 0.1155437001352586 -0.1891597431956382 0.9980448890375341
0.0781893824883951 0.1179123592082699 -0.1977576802974343 0.9852905109886687
0.0773463721483747 0.1182344169988686 -0.1988997834424470 0.9788511468753771
0.0818411635427350 0.1165436203325087 -0.1928184688731497 0.9972063307001451
0.0832365343867130 0.1160247654858802 -0.1909292555875538 0.9978985869812587
0.0908854489031386 0.1135323565685058 -0.1816330882487492 0.9998563282702563
0.0764336788108759 0.1186221381634885 -0.2001172072033656 0.9727173583616516
0.0705011895774137 0.1212165278081690 -0.2079293910653877 0.8995579054795162
0.0871425940087645 0.1146942334572541 -0.1860517664722667 0.9986089557164574
0.1043198661003780 0.1097328911707945 -0.1660369712176554 0.9999048823545560
0.0972833884468206 0.1116541579338492 -0.1741561010467086 0.9998967996656218
0.1078754696961489 0.1089074871482607 -0.1621320512385264 0.9999195245289866
0.0944121432254960 0.1124836134772795 -0.1775036341469357 0.9998963867466026
0.1062029281966292 0.1092779003987316 -0.1639408719147440 0.9999081454611572
0.0921088012159480 0.1131507157991165 -0.1801898464495380 0.9998640358454504
0.1041239297653602 0.1097796013225382 -0.1662563357157639 0.9999048823545560
0.1012763423520562 0.1105434672539568 -0.1695284112828125 0.9998962679095358
0.1033613572122166 0.1099788465512810 -0.1671268158460238 0.9998970683861512
0.0903649778004252 0.1136913827142424 -0.1822449883778826 0.9998505430306477
0.1053703769836116 0.1094626760672263 -0.1648417669770791 0.9999081454611572
0.1026783109292652 0.1101561779029602 -0.1679056141990096 0.9998970683861511
0.1058108389648266 0.1093638142244835 -0.1643635889087937 0.9999081454611574
0.0872265117830781 0.1146645416347421 -0.1859438423662653 0.9986089557164575
0.1007436186470015 0.1106932181808686 -0.1701469856772759 0.9998962679095358
0.0979122341548854 0.1114791968527475 -0.1734272126086698 0.9998967996656218
0.0980023990504836 0.1114545586526991 -0.1733230033442189 0.9998968724083666
0.1119578225415938 0.1080360847200648 -0.1577743407869289 0.9999221479644572
0.1098843226767032 0.1084758519908803 -0.1599839031063432 0.9999244762243725
0.1082946140888806 0.1088147418055517 -0.1616790459762519 0.9999244762243724
0.1075927869706511 0.1089699407515216 -0.1624381483165360 0.9999114893258689
0.0912774309167890 0.1134149132911498 -0.1811738086617829 0.9998582139838922
0.0892698919300952 0.1140261939477474 -0.1835322603539418 0.9993165800961810
0.0956411944823819 0.1121234558473433 -0.1760687032310966 0.9998963867466024
0.0916154773113782 0.1133135904576887 -0.1807777028648215 0.9998582139838922
0.1003174562530399 0.1108047798390445 -0.1706353438441178 0.9998962679095359
0.0985551905186362 0.1113009521325832 -0.1726823770107546 0.9998970090177483
0.0933092368793082 0.1127978341401188 -0.1787877533474984 0.9998930373328657
0.0941291432894919 0.1125500276358979 -0.1778258270112429 0.9998963867466026
0.1041288017917718 0.1097709928937442 -0.1662432165693520 0.9999048823545560
0.1033473883229665 0.1099822675125172 -0.1671428943348344 0.9998970683861512
0.1054098174209556 0.1094583520292145 -0.1648078435127512 0.9999081454611572
0.1059952362115473 0.1093190508754919 -0.1641581284584313 0.9999081454611574
0.1009731000695625 0.1106260431464074 -0.1698787064520523 0.9998962679095358
0.1115993901689393 0.1081096201521149 -0.1581543948971520 0.9999231909980685
0.1141557662494208 0.1075962116017350 -0.1554628372052239 0.9999179510810927
0.1128170998144536 0.1078644417158778 -0.1568712402712715 0.9999187713828704
0.1079744026125607 0.1088861202702227 -0.1620309397426782 0.9999222585906884
0.1114144600800357 0.1081472285158148 -0.1583500186879326 0.9999231909980685
0.1100242615098174 0.1084401854960354 -0.1598318742245359 0.9999244762243725
0.1126917067024435 0.1078900595124539 -0.1570040492541112 0.9999187713828704
0.1097943353029233 0.1084881726418676 -0.1600765824446823 0.9999244762243725
0.1099709689845353 0.1084550772112181 -0.1598904177410323 0.9999244762243725
0.1138448852114987 0.1076581187496623 -0.1557892592700534 0.9999179510810927
0.1114796032273651 0.1081364141849963 -0.1582830721941872 0.9999231909980685
0.1086167693820900 0.1087452303838533 -0.1613388610618220 0.9999244762243724
0.1126939835222920 0.1078888037094178 -0.1570002250968212 0.9999187713828704
0.1136660643021412 0.1076941951243019 -0.1559778083624737 0.9999179510810927
0.0431371789647408 0.1336537377041834 -0.2359364180028558 0.8262728107941267
0.0421755819284073 0.1300015028869527 -0.2427986926118582 0.8127583020524393
0.0406311519376488 0.1232729122179660 -0.2551533743455695 0.9106510346996094
0.0412403878506374 0.1263147765501746 -0.2496768664897659 0.8452674077039432
0.0641657881285108 0.1488140956713138 -0.2126043600437180 0.8490150751649155
0.0572920857969098 0.1435323690916653 -0.2171370545154499 0.8629865507341007
0.0526502042987960 0.1404819124275042 -0.2202711876612853 0.8595201525012868
0.0549644800841191 0.1439090966934266 -0.2178643144429795 0.8612902855298944
0.0494536535421147 0.1395765700461223 -0.2224766186729157 0.8612519467778291
0.0438191271639460 0.1374881380736900 -0.2291091781003458 0.8428766077943628
0.0438373884416559 0.1411666182599972 -0.2243907778559106 0.8492396011489699
0.0451943626592258 0.1433213435748698 -0.2212794523362539 0.8551156648236777
0.0575906583805074 0.1442700720580987 -0.2167663982936766 0.8629865507341007
0.0537702852564768 0.1420576187076017 -0.2190564847605239 0.8595455146403648
0.0429118547173975 0.1366698740792516 -0.2313719322595495 0.8385073186930656
0.0617922528243161 0.1465385417039956 -0.2143680223882776 0.8569928665630994
0.0490225654330423 0.1421972102196545 -0.2208116596308150 0.8563546688729770
0.0511822565427487 0.1429361973945598 -0.2195991019830110 0.8629526392192409
0.0541128679026838 0.1429569323000916 -0.2185596038379890 0.8577786502440168
0.0606303167905885 0.1456673543448768 -0.2151408171445019 0.8582974654472795
0.0606351956001077 0.1456595519721886 -0.2151487820717054 0.8582974654472795
0.0472138608188140 0.1425042745720702 -0.2212381929257018 0.8565248431202885
0.0677723344271030 0.1526171700740860 -0.2097669188953168 0.8667018871298293
0.0585014054105452 0.1433972076143532 -0.2167296763537866 0.8613289713586281
0.0597979840857354 0.1445234683897345 -0.2158872982747639 0.8613289713586281
0.0562304113478135 0.1392391150450177 -0.2189503723549334 0.8612683795312102
0.0648923515392733 0.1494008076763989 -0.2121072832498516 0.8498993715472303
0.0649341552110301 0.1494572584854528 -0.2120691106344198 0.8498993715472303
0.0657211216328505 0.1502809949337052 -0.2114513031034757 0.8539616706710398
0.0682504524541716 0.1531828870749100 -0.2093661130159474 0.8599276963366616
0.0737551695489675 0.1594221695327708 -0.2048574688813583 0.9088973238730809
0.0678393989194742 0.1527049915963817 -0.2097074255130481 0.8667018871298293
0.0757310144251724 0.1616657595353725 -0.2032375754816666 0.9414124796726641
0.0757994976333329 0.1617440046273039 -0.2031812433134927 0.9414124796726641
0.0739365267157744 0.1596271570721330 -0.2047091489527514 0.9088973238730809
0.0708668912906744 0.1561412086485136 -0.2072259179207410 0.8697602931741206
0.0700849680325113 0.1552461884947858 -0.2078697401025758 0.8701620620388245
0.0708722348614807 0.1561527698609728 -0.2072194165622600 0.8697602931741206
0.0769499424711865 0.1630480477796533 -0.2022389409579780 0.9504483986737966
0.0122702644830292 0.1724795999107640 -0.1958846539260973 0.9996749913798347
0.0209536619562796 0.1625353762251010 -0.2061275551448044 0.9812424602221373
0.0283250025385354 0.1540887270059272 -0.2148824774533548 0.8396854733628076
0.0162089865735485 0.1679729532135586 -0.2005464446579389 0.9974667237094561
0.0206285080956499 0.1629079376831095 -0.2057452225333543 0.9812424602221373
0.0165226157207809 0.1676133636864595 -0.2009148175016714 0.9974667237094561
0.0391978576178636 0.1160137814098234 -0.2682053941157249 0.9996611379181873
0.0408599446752672 0.1243373418606099 -0.2532189594350728 0.8868277054439291
0.0398398185857892 0.1195044401781234 -0.2619809264342065 0.9857303856220729
0.0426778158026133 0.1326713592036352 -0.2380432988791460 0.8212824415194231
0.0418727382788725 0.1288915351965030 -0.2449001771972165 0.8124128622654788
0.0425258745299329 0.1318777969641191 -0.2394599417528713 0.8155455809451987
0.0399431212893484 0.1200709123407187 -0.2609718784957337 0.9802170161689677
0.0416426637393372 0.1279149227146466 -0.2467012903120631 0.8212316342363675
0.0380577467896594 0.1098563040550185 -0.2791995380294400 0.9783600840492500
0.0209801560453985 0.1625048998448027 -0.2061587357802336 0.9812424602221373
0.0277944579671505 0.1546961364504388 -0.2142125087012435 0.8568694377651916
0.0311128102289608 0.1508961185081500 -0.2180306680651909 0.8299822878228441
0.0233998771403917 0.1597320954541201 -0.2090041788401212 0.9381582232432181
0.0423655601452467 0.1382626777520453 -0.2292814169811654 0.8407831459058105
0.0422522187337515 0.1388853126538497 -0.2284496763191141 0.8430251288678384
0.0313777843147410 0.1507244181006526 -0.2180196567138526 0.8299822878228441
0.0432208048822060 0.1357129605065825 -0.2326611019595675 0.8337993046760371
0.0348538121666982 0.1479129323687579 -0.2201632921387034 0.8311494417965342
0.0223177535037129 0.1609720344040960 -0.2077316967947067 0.9616674258055271
0.0415028006753825 0.1389027334836193 -0.2289540960983106 0.8408617470300047
0.0400724953448846 0.1452230211820366 -0.2212081005260072 0.8495195123409908
0.0265755122463419 0.1560936506482266 -0.2127372328392120 0.8646406936281444
0.0327425479309266 0.1496799177047750 -0.2188470228395669 0.8251714719604377
0.0431322753483737 0.1348620030535299 -0.2340786469952204 0.8314249047421288
0.0387621014812611 0.1431389356931892 -0.2246334022790409 0.8386196177797599
0.0389730358495482 0.1411157189069010 -0.2273690610150012 0.8362780461250209
0.0339909067487868 0.1474108969965954 -0.2212231945017356 0.8253281544692856
0.0249534210474805 0.1579521254082369 -0.2108673116183772 0.9130175725971625
-0.0140395463804109 0.2013372533809575 -0.1676499218013933 0.9996052603391777
0.0117448250813997 0.1730822441363368 -0.1952669027725570 0.9996814457858912
0.0087021458140347 0.1765645552041487 -0.1916545238742015 0.9997677258017381
-0.0061400791176400 0.1923902848890020 -0.1752081171621864 0.9996678894447834
-0.0088215984673181 0.1954192624396716 -0.1724611509201803 0.9996777839098613
-0.0103030840520877 0.1970935173402324 -0.1709727806056803 0.9996711055930076
-0.0002931261466822 0.1860670913828837 -0.1810769912077259 0.9996844120857247
-0.0112349466647001 0.1981598287909318 -0.1700978997043024 0.9996279011720773
-0.0083899338796241 0.1949334739992104 -0.1729094433217265 0.9996822179039764
-0.0075561177835777 0.1939902546369524 -0.1737582259239796 0.9996736555279453
-0.0084938282925301 0.1950500725332110 -0.1728003151307338 0.9996822179039764
0.0047729026171053 0.1808551300002791 -0.1869895532655317 0.9996743720039567
-0.0026277788980433 0.1885346856733129 -0.1787602413415059 0.9996713586917201
-0.0013738020002172 0.1872063003933902 -0.1800140749515404 0.9996644545888499
0.0006148400075620 0.1851305188483630 -0.1820992336994066 0.9996714449071589
-0.0129011595616369 0.2000560622715120 -0.1685796791277865 0.9995978937192227
0.0070668968151015 0.1784323340559672 -0.1897097535691110 0.9997441993421968
-0.0167907993206791 0.2044396302942981 -0.1653748169112279 0.9996049158840340
0.0021641221905189 0.1835489219523920 -0.1839157038336292 0.9996649022531242
-0.0044867512617864 0.1905562523181690 -0.1768863452561845 0.9996834226472532
0.0034601467554666 0.1822133938056216 -0.1854350111388303 0.9996586703195015
-0.0112710735637851 0.1982042044065262 -0.1700507235706743 0.9996063377958497
-0.0410383345303517 0.2318513826035913 -0.1477530692223114 0.9998145115984732
-0.0449066257436391 0.2362230661273778 -0.1453558385146603 0.9997990355015094
-0.0451106485659843 0.2364536991231556 -0.1452294109662449 0.9997957053985519
-0.0359346148473261 0.2260960626397472 -0.1509241010484273 0.9998368398463547
-0.0416124896391526 0.2324991170154080 -0.1473971213627372 0.9998047207291844
-0.0366853025114281 0.2269507226183717 -0.1504475249658344 0.9998240993435932
-0.0328429839059224 0.2225397505804549 -0.1529345260351686 0.9998411770292118
-0.0239104913519763 0.2124555532422324 -0.1594801953683004 0.9997413209091086
-0.0296562875301326 0.2188730476754472 -0.1550095396224066 0.9997827564078166
-0.0325617955621603 0.2222157867647181 -0.1531186970200223 0.9998411770292122
-0.0361122919449251 0.2263011907518262 -0.1508075424153598 0.9998328954988602
-0.0427384822590712 0.2337723120423259 -0.1466994081995625 0.9998047207291844
-0.0435371562794919 0.2346749375908513 -0.1462044605235827 0.9998025994491692
-0.0413530486525841 0.2322065033883374 -0.1475579472282686 0.9998096932553224
-0.0355114286810413 0.2256084795399949 -0.1512006006171558 0.9998405057715577
-0.0406826540350164 0.2314498658406830 -0.1479736288811089 0.9998145115984732
-0.0294206894432006 0.2186105259891409 -0.1551948091743303 0.9997827564078166
-0.0341558353610200 0.2240516838819503 -0.1520792262138180 0.9998431501865150
-0.0391169773433835 0.2296871640009667 -0.1489440565100584 0.9998193284496202
-0.0381447636751583 0.2285928170615992 -0.1495453232174415 0.9998240993435932
-0.0266215159428833 0.2154836871235638 -0.1573702050237089 0.9997626169312007
-0.0444291559121514 0.2356832888286782 -0.1456517107351702 0.9998012911068376
-0.0437620758317397 0.2349291465185155 -0.1460650576292452 0.9998025994491692
-0.0444457678959798 0.2357020573097483 -0.1456414171829078 0.9998012911068376
-0.0458968344920567 0.2373424752597153 -0.1447422350731428 0.9997957053985519
-0.0212632244563678 0.2094762059778100 -0.1616744118696546 0.9997260366336657
-0.0175765261170670 0.2053249924546241 -0.1647227554536071 0.9996518893171220
-0.0117606833274839 0.1987626307702472 -0.1695649497106883 0.9996018835927627
-0.0291502919873995 0.2183103930975236 -0.1554111640095817 0.9997743866549519
-0.0265918663176516 0.2154516902467608 -0.1573893690830894 0.9997626169312007
-0.0196904949802202 0.2077083271637598 -0.1629670940456809 0.9997219749992254
-0.0312600262068660 0.2207169236174372 -0.1539636848584224 0.9998298662156763
-0.0170060225765414 0.2046811083152637 -0.1651981487210633 0.9996116186492702
-0.0252329711399889 0.2139358452170945 -0.1584317096442738 0.9997565769909161
-0.0141563128975618 0.2014661413062929 -0.1675668966702942 0.9996052603391777
-0.0156105577083028 0.2031058324005424 -0.1663612787590011 0.9996016007203786
-0.0256175871179525 0.2143646297087841 -0.1581382148724075 0.9997571835006406
-0.0107281037942540 0.1975873612970557 -0.1705800174714830 0.9996609418863263
-0.0343734899281538 0.2243025036562731 -0.1519372487291673 0.9998431501865150
-0.0175007009009386 0.2052383721040392 -0.1647881871195324 0.9996316715738056
-0.0299560297868738 0.2192117403557430 -0.1547921649304315 0.9997938387751563
-0.0218192459107755 0.2101013990268438 -0.1612113418851931 0.9997367358595086
-0.0249934396407908 0.2136686942580825 -0.1586145451615132 0.9997470329781591
-0.0221868716358244 0.2105151487206332 -0.1609101517455686 0.9997417825508753
0.0085668640943233 0.1767167738852803 -0.1915006417863565 0.9997687019194706
0.0003895876232235 0.1853540880466858 -0.1818105881955297 0.9996844120857246
0.0028851682691695 0.1828015738353881 -0.1847581923728573 0.9996586703195015
-0.0050979534813187 0.1912260629709102 -0.1762690467221320 0.9996770630264413
0.0004929488242742 0.1852513317052115 -0.1819426272575972 0.9996780583384166
-0.0101302547427687 0.1968957778065472 -0.1711370410820101 0.9996735227567748
-0.0040265941176065 0.1900307351441730 -0.1773587249274418 0.9996834226472534
-0.0042264826679951 0.1902419867061488 -0.1771602232950517 0.9996834226472534
0.0072672415945920 0.1781503304147042 -0.1899536938095094 0.9997539667183696
0.0048941710954430 0.1807449679099187 -0.1871309176321725 0.9996818107340403
0.0060490096220404 0.1794949923951595 -0.1885037400629431 0.9997077775874184
-0.0071609980991301 0.1935491869506614 -0.1741661728403256 0.9996691258757140
0.0102440968719697 0.1747986187710428 -0.1934869715971171 0.9997514323396484
0.0028741438533740 0.1828231458222858 -0.1847397462067689 0.9996586703195015
0.0179421242105319 0.1659849814773139 -0.2025798867817672 0.9895789279191985
0.0115430994845599 0.1733134773904070 -0.1950294958749307 0.9997256314378840
0.0160472496968770 0.1681569004270832 -0.2003520922289821 0.9974667237094561
0.0131658689458727 0.1714567575308957 -0.1969566980406945 0.9996597836402389
0.0067826868323743 0.1787660754802349 -0.1893704719220307 0.9997359424349799
-0.3556116198653760 0.0390369816446985 -0.1817924338380976 0.9922929059362267
-0.3592791263724717 0.0376981096193910 -0.1845837392346663 0.9970161245066209
-0.3665681146067473 0.0351230975739912 -0.1903245398415745 0.9991883576274142
-0.3712863661629767 0.0334366276009294 -0.1940743477624157 0.9997086677869604
-0.3617619564870639 0.0368203744496044 -0.1865372970706794 0.9980836731481778
-0.3545889630141206 0.0394183583384356 -0.1810218874682817 0.9884009768557168
-0.3624459279396222 0.0365794520201413 -0.1870766977147000 0.9981102703768854
-0.3246512063702903 0.0540423784704430 -0.1621644143340014 0.8105924953274098
-0.3186769510495515 0.0572202897955145 -0.1593702778366955 0.7941187923015911
-0.3210080727395201 0.0554499351195048 -0.1604404789530959 0.8001118406815789
-0.3298420738130354 0.0515563018948319 -0.1649802326638845 0.8317070893244892
-0.3246335333965715 0.0547568202935130 -0.1620909534541889 0.8091435683436082
-0.3496902452027529 0.0414115824982368 -0.1774910662221170 0.9587467958328802
-0.3230799567116233 0.0550200627755918 -0.1614008540054318 0.8046109946733415
-0.3451417908747351 0.0434793068682489 -0.1744253831076482 0.9364123360000858
-0.3405801241818963 0.0456283683105312 -0.1713688576882310 0.9006479197090950
-0.3414478394259983 0.0452137570580731 -0.1719483574291711 0.9086542288266150
-0.3266792486394875 0.0534213097518043 -0.1632226801639718 0.8195333830326489
-0.3302359846417821 0.0512572530997191 -0.1651969610928148 0.8317070893244891
-0.3230720417033512 0.0542201093653777 -0.1614111769488839 0.8046109946733417
-0.3207176660111848 0.0559005231937156 -0.1603042198032189 0.7986081113436665
-0.3216684148294909 0.0558565450585068 -0.1607388464230972 0.8013748516503690
-0.3163410687985641 0.0574202491406484 -0.1584223253148904 0.7884956385444885
-0.3326557521420888 0.0499138474371617 -0.1665441683553164 0.8478754821808038
-0.3294035013167517 0.0516163241389220 -0.1647323563840994 0.8291626618983592
-0.3260472292848401 0.0538269191411468 -0.1628726766406596 0.8154073018374780
-0.3349300139370998 0.0486350562051283 -0.1679321263982938 0.8565666336469343
-0.3171712887512425 0.0577074860635957 -0.1587471771001028 0.7921778652867388
-0.3250470454336019 0.0542248183175362 -0.1623518818730939 0.8114872422195960
-0.3506521031259096 0.0410125806460816 -0.1781814689396983 0.9669860031382009
-0.3270440737448195 0.0531230171215791 -0.1634257105800155 0.8214178834031008
-0.3384399095349117 0.0466737354881069 -0.1700716703389444 0.8749032819518296
-0.3161085713443105 0.0579044519908828 -0.1583192295732944 0.7868930648142073
-0.3278367634511082 0.0525076844402068 -0.1638640922453393 0.8255700454143711
-0.3154263227015386 0.0570508856174838 -0.1580516806097660 0.7863860820812127
-0.3092553568941756 0.0600113007124585 -0.1557945238666147 0.7682553672420093
-0.3117811898344630 0.0584797486802056 -0.1566709476122328 0.7729334399082534
-0.3127971921591148 0.0591371503795479 -0.1570341951887936 0.7762407169285439
-0.3178160700186727 0.0574715728941964 -0.1590163450623564 0.7921778652867388
-0.3194295688639834 0.0567217333736905 -0.1597227827879236 0.7956942755341866
-0.3132498335350349 0.0589267980451799 -0.1572086672164751 0.7766273300703401
-0.3158819709415044 0.0582206610467637 -0.1582153538301819 0.7868930648142072
-0.3246863735175936 0.0539598440749753 -0.1621839864696979 0.8105924953274098
-0.3140170645442383 0.0584859501450347 -0.1575064890922525 0.7793617516404945
-0.3147361973101294 0.0585560960440281 -0.1577744936694237 0.7825943677026872
-0.3100265850261215 0.0594165558152712 -0.1560606178820131 0.7706911806753211
-0.3798676421662949 0.0303222028503170 -0.2008941450094932 0.9999537147951061
-0.3807729828654468 0.0299853457594005 -0.2016135696038175 0.9999679820263734
-0.3774211156656038 0.0312298758635904 -0.1989499603591112 0.9999148344730948
-0.3749455563516544 0.0321262872356655 -0.1969821749038031 0.9998257723774272
-0.3807333234102532 0.0300001768514554 -0.2015820541124397 0.9999679820263734
-0.3777480523385455 0.0311123779337362 -0.1992098614718653 0.9999148344730949
-0.3743310283520085 0.0323424657455002 -0.1964933279682783 0.9998089297167110
-0.3761956841423174 0.0316818656270240 -0.1979760542748549 0.9998809273794633
-0.3813545995791428 0.0297698360298145 -0.2020757604369439 0.9999790925174569
-0.3733246211843537 0.0327053328578782 -0.1956934760757938 0.9997842346379363
-0.3701033953882087 0.0338622463764555 -0.1931322174564466 0.9995995380780273
-0.3562893716096946 0.0387499639102564 -0.1822818767576262 0.9945527165637840
-0.3776881580604112 0.0311347400127739 -0.1991622693179886 0.9999148344730949
-0.3630746772290267 0.0363553301848534 -0.1875657153370840 0.9982554370825942
-0.3585849430110136 0.0379329491142439 -0.1840505508446680 0.9965188769623018
-0.3698232946605231 0.0339610308537297 -0.1929105779485428 0.9995995380780275
-0.3585012625425547 0.0379776054545665 -0.1839884866668005 0.9965188769623018
-0.3718766429976426 0.0332250345683567 -0.1945420371669153 0.9997325558467799
-0.3560132380217593 0.0388650544612196 -0.1820815765720943 0.9923998846858940
-0.3598503889494998 0.0374838422361371 -0.1850292443077019 0.9975494649173923
-0.3634106247353039 0.0362354187515846 -0.1878239684528474 0.9984769325426980
-0.3722790092399314 0.0330813016968743 -0.1948630489999553 0.9997325558467797
-0.3652540128840416 0.0355875638271985 -0.1892873740515522 0.9989540043909767
-0.3649531382455484 0.0356908516472680 -0.1890473430725680 0.9987212592549937
-0.3435375244678516 0.0438937069196505 -0.1732784490921067 0.9271527865335557
-0.3301818621671848 0.0493732042798945 -0.1650685809794628 0.8343569367694378
-0.3309321623036854 0.0490085700797747 -0.1654849401717729 0.8392057210903349
-0.3340195941584867 0.0478856836226621 -0.1673150432216022 0.8554014616657240
-0.3293812768878195 0.0508984185109497 -0.1647231475305730 0.8291626618983591
-0.3602352866814216 0.0373513760129391 -0.1853313866205639 0.9977601894444779
-0.3289351139841830 0.0497021034270810 -0.1643141969654316 0.8291626618983592
-0.3505196767705058 0.0409404975718222 -0.1780471044969860 0.9665930750386358
-0.3456296908613987 0.0429303994891576 -0.1746278547420476 0.9407404417479316
-0.3157909428097352 0.0548433929967580 -0.1580529713755617 0.7900485932055068
-0.3424223712973267 0.0444669181677156 -0.1725814737753953 0.9201710340177914
-0.3404664324395643 0.0456085122562311 -0.1713432163590530 0.9006479197090951
-0.3196292890237742 0.0552323075396694 -0.1598247214168729 0.7970871681397819
-0.3391711196010901 0.0456864825382222 -0.1705237341507991 0.8862356583690723
-0.3510709895611043 0.0407326251847930 -0.1784452350804897 0.9696173648947807
-0.3421417087766022 0.0444278942311417 -0.1723719794613962 0.9174653721813317
-0.3243456486075162 0.0515120918336540 -0.1619812078596989 0.8114872422195960
-0.3511821288118137 0.0406718422677289 -0.1785187402297514 0.9696173648947807
-0.3554332476550863 0.0390198045218291 -0.1816007921069308 0.9909238050842425
-0.3486044471162016 0.0417386013661761 -0.1767019329519094 0.9553997989213499
-0.3254617625474875 0.0528695753355646 -0.1625924740670262 0.8154073018374780
-0.3308889326027880 0.0493291085652084 -0.1655267427567099 0.8392057210903349
-0.3420983953486210 0.0447842920623343 -0.1723961400203179 0.9156088886730370
-0.3517062359814067 0.0404959867137137 -0.1789074650181505 0.9760152614983489
-0.3236807758172943 0.0529716409382209 -0.1616914447388115 0.8083540614492911
-0.3256884196543232 0.0507293145992710 -0.1626518649795520 0.8181889261168386
-0.3219449625677704 0.0529713742439624 -0.1608061001451705 0.8030764212145819
-0.3320710387473147 0.0499070856680491 -0.1662575498219177 0.8452210074914589
-0.3248780009128512 0.0534926062125500 -0.1622941737522638 0.8114872422195960
-0.3191851318281849 0.0536879671146987 -0.1594979315998121 0.7972182834914844
-0.3224615781753754 0.0519160640319183 -0.1610044696105691 0.8046109946733417
-0.3568733823931973 0.0385185901317160 -0.1827155318227978 0.9947039631418542
-0.3489828123747675 0.0416239424341769 -0.1769888225016017 0.9558953292274558
-0.3464263608811817 0.0427644136568540 -0.1752531570535446 0.9432325477400950
-0.3528032095668960 0.0400217380643283 -0.1796749372906973 0.9824970798988941
