ply
format ascii 1.0
comment object: PointCloud
element vertex 806
property double x
property double y
property double z
end_header
0.0538388546204354 -0.0324493119290068 -0.0567000573908028
0.0406522564674104 -0.0207328700826409 -0.0513321614061609
0.0709165301691933 -0.0585803057226150 -0.0543634617599275
0.0515720035671761 -0.0463501448094636 -0.0418094377890360
0.0820126183625822 -0.0836736585732628 -0.0792552710549534
0.0840807430538568 -0.0731906145574675 -0.0710622628346488
0.0841567311416961 -0.0900630918129118 -0.0870678819938498
0.0914627040680846 -0.0386159965203852 -0.0507641542565797
0.0928169366635860 -0.0192659878118306 -0.0418264932315971
0.0883878514234916 -0.0281207319754334 -0.0534826699762347
0.0811851248368929 -0.0588285233241743 -0.0632274189081281
0.1172045444378984 0.0104540726055519 0.0043565996092096
0.1019551514193991 -0.0027193151935251 -0.0226707947436497
0.1286291021813262 0.0155303890487307 0.0177975065932800
0.1062940864630989 -0.0569110042819440 -0.0583635721634619
0.1009829911934145 -0.0631958587253532 -0.0637360365702190
0.0964141122366137 -0.0569922460552151 -0.0570496939633061
0.0985119316716331 -0.0714995369713837 -0.0680650733660039
0.0922570003930745 -0.0653757194075138 -0.0585752423881046
0.1658711838209329 0.0042027960646850 0.0649481912379567
0.1751028989493580 0.0131403048089304 0.0619467379086715
0.1572868141061452 0.0180991366633957 0.0505418243803369
0.1631908905663034 0.0143934610651465 0.0601437339807797
0.0777999240499822 -0.0850632202997837 -0.0633583803420796
0.0908232772527792 -0.0263758992891346 -0.0359703852036422
0.0845677368512720 -0.0319796019952584 -0.0398693811977076
0.0791797398093253 -0.0475671343906059 -0.0383404825966911
0.0868466180827663 -0.0233039019083633 -0.0281407188221846
0.0825751434056253 -0.0446631788032829 -0.0469111470451351
0.0872701108127888 -0.0246792253859603 -0.0137246059973859
0.0772730326994329 -0.0541827806652956 -0.0452253992848516
0.0804221983437565 -0.0403135841079824 -0.0304663502399849
0.0797539904691292 -0.0533274578348916 -0.0555731799358708
0.0935550413965665 -0.0111065574940683 -0.0301630070115762
0.0834784727384168 -0.0322218045077003 -0.0266903970815397
0.0830791926456017 -0.0361717003381585 -0.0178526322201294
0.0810133521653844 -0.0392316294705104 -0.0075876922901209
0.0925367401072245 -0.0415741259799504 -0.0304965018259412
0.1190881048757435 0.0143254677160078 0.0142048994423670
0.0921846670429268 -0.0164144929384567 -0.0204651605467259
0.0992046567449420 -0.0124306004334291 0.0091254231738922
0.0971111011705628 -0.0081003073215627 -0.0162774402750190
0.1106310418572157 -0.0051149576802315 0.0299117437952732
0.1110626054663073 0.0034694881749248 -0.0048161828739372
0.1098816683496859 0.0102969188848100 0.0144406300234798
0.1055127340007670 0.0026010311309414 0.0057073297477570
0.1153633180449817 0.0038863186226968 0.0361369803300875
0.0997574358208073 -0.0042482899349096 -0.0020833527649899
0.1162016235030088 0.0069410702099855 0.0259426986621185
0.1033136478755408 -0.0000314840424065 -0.0113289254404958
0.0952059168680419 -0.0137620289885419 0.0001664428457082
0.1066996100661373 -0.0028576241730443 0.0170281843091832
0.0918255890647201 -0.0225799592839380 0.0049827780003826
0.0914250907260078 -0.0223748371309929 -0.0055428665516313
0.0937351895086185 -0.0140239137862607 -0.0093760772672460
0.1022705248260429 -0.0144325972145951 0.0230457099185203
0.0870992518257031 -0.0316312598090210 -0.0029254652414459
0.0726983670746203 -0.0624515485523337 -0.0397186232679256
0.0761452415600779 -0.0551699786140741 -0.0184739376277136
0.0893919906042784 -0.0524742288646235 -0.0360233789001708
0.0821970303352745 -0.0506038407105420 -0.0092670442594451
0.0814937978911020 -0.0466306839974837 -0.0212162091423644
0.0889042354031774 -0.0433660134140295 -0.0009604346092233
0.0796400844777388 -0.0636901619981517 -0.0297369255090222
0.0906956659950450 -0.0627229128259403 -0.0426762197449113
0.0762966086128080 -0.0517420250102077 -0.0298797648404717
0.0897769563078011 -0.0822630059646462 -0.0565477766536498
0.0785514294878322 -0.0733297610810410 -0.0494058100811752
0.1202326468961853 -0.0186335278402500 0.0424015052950868
0.1026005171834534 -0.0346730675336517 0.0219267510619202
0.0956970222453603 -0.0274310525168675 0.0166328635155341
0.1141092861745269 -0.0231389437998423 0.0373098465676398
0.1062276920617002 -0.0263033375178812 0.0303003642364882
0.0996246470180099 -0.0235592005642002 0.0245423250032598
0.0985857878291523 -0.0442228971219893 0.0156451706543593
0.1096508107521620 -0.0150567198158165 0.0371283279289540
0.0882465348994137 -0.0375944211951945 0.0094586134267829
0.1345966797088771 0.0123533560295081 0.0410465112958996
0.1245473693026778 0.0102047890388325 0.0356837928563203
0.1433142950686737 0.0230264844754547 0.0470874881387582
0.1361217712914642 0.0190241660012315 0.0323573724339506
0.1213566310171115 0.0187220029485357 0.0272212477312550
0.1397236675673436 0.0066023978505574 0.0494712907981509
0.1470480664629276 0.0130630604050095 0.0541725017155377
0.1197281408139975 -0.0032800890080909 0.0419059837763910
0.1315588312834124 -0.0076320059846330 0.0527840059541768
0.1288891976803835 0.0028484873288150 0.0463988746453524
0.1542625186662871 0.0056024463900423 0.0577145516617160
0.1433936333327304 -0.0037402052553987 0.0572034975078311
0.1232232882931326 -0.0105310885883672 0.0486099909488137
-0.3447987657646255 -0.3985654012454661 -0.0768157336457626
-0.3332808599293228 -0.4088525741630984 -0.0646768269643501
-0.3338534355010180 -0.4113697747482373 -0.0766195960563096
-0.3265103060747643 -0.4077045677558864 -0.0521468633499288
-0.3236169720688577 -0.4203167248981862 -0.0670332190910553
-0.3361138907633168 -0.4096624792636466 -0.0908279979556311
-0.3284231044141429 -0.4182595644199866 -0.0576417614693568
-0.3375238581086163 -0.4193894494194773 -0.0732133805276718
-0.3274214017251506 -0.4197807728437762 -0.0760470204846144
-0.3287849234456183 -0.4213737054947649 -0.0891803203796359
-0.3403341991127745 -0.4027831017873000 -0.0851710731318723
-0.3183544543543251 -0.2610432562951430 -0.0422135908654400
-0.3247912088330443 -0.3016645236325428 -0.0214909235921884
-0.3213187511837449 -0.2683917155471971 -0.0318246944153895
-0.3314624756469791 -0.2746587150741751 -0.0284190880097003
-0.3286123893704240 -0.2828566914535292 -0.0240851782303265
-0.3228834357579918 -0.2900146284683128 -0.0177874560646279
-0.3348248343233169 -0.2861811893315923 -0.0306344681738018
-0.3602452100570007 -0.3430252662295576 -0.0414281268232049
-0.3627523601134873 -0.3526132421425519 -0.0482646182369507
-0.3384456134106033 -0.4198036530245334 -0.0607019951631831
-0.3428312986406090 -0.3868174753566939 -0.0327639620021491
-0.3463002538329539 -0.3774524384428915 -0.0317071336863074
-0.3504687867317795 -0.3912347588396590 -0.0356177030163959
-0.3470698806785250 -0.3918146438867375 -0.0640357250609361
-0.3421399440939345 -0.3921093261482205 -0.0497103715554811
-0.3590452378482352 -0.3843968968992788 -0.0629155479584388
-0.3408955059099203 -0.3918803530248189 -0.0190934156664519
-0.3435590482834631 -0.4104038199622915 -0.0596902419455387
-0.3311968980413843 -0.3912868007815810 -0.0288826305735939
-0.3412588477487674 -0.4025084444427525 -0.0422857719348505
-0.3385494688733416 -0.4007407696458807 -0.0575260281091200
-0.3362200304371125 -0.4072279671187819 -0.0496135210066518
-0.3490582102635315 -0.3829426158594678 -0.0515429179463800
-0.3519847414701374 -0.3736637508078017 -0.0607004723558116
-0.3271596311379846 -0.4117115688627770 -0.0369449819214212
-0.3467828314889916 -0.4038759254623862 -0.0670825580498929
-0.3314338468683944 -0.3994973593568423 -0.0336179523761030
-0.3531055276955833 -0.3708610999808697 -0.0496333175024823
-0.3527802560410246 -0.3953559704994142 -0.0440004530351930
-0.3448749061332020 -0.3724451051736429 -0.0422568385947914
-0.3320604821017789 -0.4045837263286733 -0.0413297534670047
-0.3481149833776059 -0.3820395149477821 -0.0404115006219716
-0.3620182146796728 -0.3739881658832140 -0.0567225949399015
-0.3507296436345226 -0.3836618758512255 -0.0681844614639318
-0.3520231162158999 -0.3558968716777816 -0.0439727379410312
-0.3549965498895490 -0.3624902468946626 -0.0354782138611637
-0.3364428171555673 -0.3921582272999389 -0.0380840418353255
-0.3623666330062789 -0.3641307672760118 -0.0531238965595028
-0.3469331325765617 -0.4061841588059669 -0.0520049377029022
-0.3447075496030709 -0.2935359682342383 -0.0334839453274083
-0.3516935807007009 -0.3325700895886613 -0.0365045860295748
-0.3596630407988649 -0.3334339591754379 -0.0412992973195735
-0.3232428182976728 -0.3014385580537000 -0.0105991961480588
-0.3375250763545135 -0.3189430955437898 -0.0300448371595455
-0.3275208410465114 -0.3199691060454501 -0.0042621855521747
-0.3430542376398010 -0.3296153293404055 -0.0109573604418426
-0.3490731337757725 -0.3428000810894927 -0.0309506029841314
-0.3216683877562482 -0.3122608645167800 -0.0036463622511281
-0.3360534353106671 -0.3214760000799475 -0.0099760633716288
-0.3486738536829573 -0.3216985964474808 -0.0277953461103217
-0.3514484087138846 -0.3183304320680391 -0.0401084619550372
-0.3477045867909787 -0.3343982008030906 -0.0225861266537926
-0.3307793442601109 -0.3096912412878763 -0.0173440145580385
-0.3403281078832884 -0.3249786283502952 -0.0203311534980313
-0.3464546665004270 -0.3077876178629113 -0.0310081651027752
-0.3337209512596949 -0.2970528157184177 -0.0247299348714322
-0.3384309944598365 -0.3346847931504126 -0.0201852685518387
-0.3380012582195909 -0.3098441311479779 -0.0251517525133460
-0.3425643505083799 -0.3601957188174260 -0.0189929103799309
-0.3350118350685408 -0.3501936154397439 -0.0100546402319997
-0.3242853322242221 -0.4002539090941105 -0.0110727892406045
-0.3259733641955629 -0.3946692795503151 -0.0221749686634796
-0.3329782781045998 -0.3650053916898499 -0.0132750732613109
-0.3138763347168674 -0.3313866779100611 0.0090782161453748
-0.3260329059637897 -0.3274458808536479 0.0014303729640779
-0.3487114670250341 -0.3673707303098628 -0.0139737372833688
-0.3272062290435534 -0.3658200555634341 -0.0021872082277282
-0.3210976395533988 -0.3369636934169989 0.0026671971112344
-0.3141964288263630 -0.3594578425055511 0.0032111439043449
-0.2963485173090853 -0.3634722672983779 0.0170208748337999
-0.3157847169148685 -0.3206103792646935 0.0016764586353171
-0.3317713009819254 -0.3920702090338645 -0.0139262256933770
-0.3137880118893187 -0.3680814625803400 0.0096824661103978
-0.3046721824018671 -0.3558635602665295 0.0191972711291908
-0.3470203894389503 -0.3671005271768769 -0.0309694857955384
-0.3262291958339799 -0.3460002227105781 -0.0015750396643733
-0.3535626744685166 -0.3593737645035506 -0.0138549583083894
-0.3154577701722011 -0.3796489357955860 -0.0041662486877683
-0.3527578707726631 -0.3488948891729349 -0.0240827417385321
-0.3069270032768913 -0.3566859143173398 0.0084706160041339
-0.3172827025262424 -0.3648945313132024 -0.0044616733178451
-0.3254201282774861 -0.3746846599047675 -0.0128474689513848
-0.3457336172100077 -0.3538188868087764 -0.0129431012543174
-0.3495383514277748 -0.3742743584936009 -0.0199480151633544
-0.3148443833629489 -0.3518867678508715 0.0175072595082665
-0.3350106168226435 -0.3504339525131557 0.0024549177636432
-0.3163845507385141 -0.3499982011837925 0.0051307948768953
-0.3429130733964602 -0.3819376391346267 -0.0231020537912669
-0.3036168768933969 -0.3731030721686966 0.0148475241531520
-0.3465703998606632 -0.3546181893630002 -0.0293550054202425
-0.3292760288229367 -0.3548470102056647 -0.0034566204526355
-0.3321354042244581 -0.3840370575173863 -0.0196687322914158
-0.3185875961629063 -0.3899192816917629 -0.0111717717197540
-0.3385490120311301 -0.3349290514528059 0.0009704851378759
-0.3234678892271849 -0.3438442701041506 0.0127076752346789
-0.3382430800301898 -0.3761851581483043 -0.0128499054431798
-0.3073233900357005 -0.3691537473910028 0.0006421678685741
-0.3132356896556648 -0.3413126789893510 0.0087767002858119
-0.3235950436427076 -0.3591998218315375 0.0039923440859396
-0.3397279694981685 -0.3720426271853477 -0.0240955333204529
-0.3312675563034233 -0.3743147699942229 -0.0002654253248576
-0.3439277199481105 -0.3499115534443525 -0.0044433996293868
-0.3353131986473665 -0.3362823513287923 -0.0106936102050936
-0.3549123386419034 -0.3613817954089263 -0.0249921623008097
-0.3118295293287942 -0.3821275141787643 0.0070001932061853
-0.3542357553267327 -0.3502264890438769 -0.0356149619631271
-0.3169642835048555 -0.3904590788347859 -0.0008188135236716
-0.3270802928739279 -0.3857379952812007 -0.0068354254485857
-0.3413684898795175 -0.3466124674143018 -0.0186064218690367
-0.3434932630050130 -0.3616796374957053 -0.0084715296885573
-0.3363709406476311 -0.3606357720776138 -0.0005407488976302
-0.3295154141417411 -0.3361773727956174 -0.0026647606194400
-0.3433986966672410 -0.3404095400074809 -0.0052480510445031
-0.3268844598459492 -0.4079560022880181 -0.0229436818246278
-0.3324803200941096 -0.4197958867069386 -0.0461945138960931
0.0233094601552691 -0.0782844813556032 -0.0484129396749377
0.0338896212111837 -0.0999083079611418 -0.0373628402641690
0.0475099149036204 -0.1034463224677856 -0.0452930119321475
-0.0390400603031721 -0.1112046072537026 -0.0231453015206189
-0.0023932440650963 -0.1161249120816682 -0.0126836148782087
-0.0119255613686613 -0.1126607537325437 -0.0157785685801059
-0.0121757586198037 -0.1034540126450118 -0.0248121664694948
0.0247739440044693 -0.0964094676741307 -0.0331958301727149
0.0114647598580361 -0.1010687252484318 -0.0276034723815089
0.0107992930366776 -0.1093796368294770 -0.0165786515731076
-0.0030891670338855 -0.1085275499647376 -0.0206600798902817
0.0196819807155480 -0.1062268164474618 -0.0225166866376508
-0.0197019294921153 -0.1245204917525705 -0.0037386443778428
0.0078576860370935 -0.1138180492647220 -0.0288101449427091
-0.0146489500719052 -0.1231862460038204 -0.0139408446441437
-0.0135528333258781 -0.1309886922035119 0.0045615694814175
-0.0196451287771573 -0.1028595086471666 -0.0172209717224189
-0.0065348232734459 -0.1226841764134270 -0.0048676537630950
-0.0285768508533909 -0.1227638573091423 -0.0098122092984522
-0.0349376172442708 -0.1169681285934686 -0.0164836283931241
0.0230880439634487 -0.1070223310183489 -0.0329613178374993
-0.0230199744739416 -0.1142820106006429 -0.0160703384724910
0.0063677713047888 -0.1216843772336492 -0.0124484934200445
-0.0307014716981492 -0.1076504890591050 -0.0242313677379934
-0.1869800350436048 -0.1506330215067989 -0.0286176620909478
-0.1731104577844486 -0.1341672861002902 -0.0414460959501890
-0.1873027179256320 -0.1504638756780063 -0.0377947084347349
-0.1839047255568004 -0.1402116511895506 -0.0350548734118790
-0.1859216839203916 -0.1659484282248540 -0.0202604952359929
-0.1936449060665791 -0.1605511420579410 -0.0292459724124410
-0.1762590143058237 -0.1600205959697000 -0.0231337281845947
-0.1952236004686441 -0.1475142358695374 -0.0343178346440581
-0.1765765196427876 -0.1504132042627186 -0.0279500633392691
-0.1767304754680493 -0.1690186363069638 -0.0141467282007745
-0.0643617581191808 -0.1860004892018682 -0.0728582618486310
-0.0872219900998487 -0.1105350669226253 -0.0239036595916402
-0.0830507161477543 -0.1210784902507017 -0.0235375766995244
-0.1072301561543786 -0.1203176195475169 -0.0281029531993707
-0.1200126012309995 -0.1241832660601453 -0.0257895042405427
-0.0964969529576252 -0.1257410980012202 -0.0185445958897526
-0.1047262039933721 -0.1323761219997126 -0.0139981022013132
-0.0955033211477020 -0.1162144912252985 -0.0237650841208310
-0.1115304118908415 -0.1260251777163791 -0.0194150325833190
-0.0749525788266961 -0.1223258598389061 -0.0166581421179015
-0.0655780243668216 -0.1159147646643971 -0.0155793853759092
-0.0728253692094062 -0.1130727492669111 -0.0271816547395957
-0.0501970607914222 -0.1081707942677724 -0.0259716320021782
-0.0613899995336404 -0.1077813362825037 -0.0224682613632362
-0.1574680281833575 -0.1341457764461674 -0.0335661769254710
-0.1689178645291529 -0.1612239564248671 -0.0151356393078465
-0.1306859580980518 -0.1200804803695854 -0.0272605361614404
-0.1690180652541995 -0.1391010297033096 -0.0295307373909170
-0.1469690327603455 -0.1326023731049377 -0.0311406493440983
-0.1301669853458345 -0.1451877669076827 -0.0165183484011950
-0.1573451376284751 -0.1481001360057334 -0.0235308763470897
-0.1582123764265613 -0.1579132589886085 -0.0161306416444035
-0.1433059196281306 -0.1374708644120870 -0.0231215457256225
-0.1116578708678385 -0.1386766994292328 -0.0118524666148278
-0.1180690421827161 -0.1362297764042902 -0.0178629873102564
-0.1213631790888093 -0.1444039779535563 -0.0114933886366210
-0.1275346605234081 -0.1356460081984142 -0.0200113639500100
-0.1481726597068027 -0.1550096079627598 -0.0126613818905844
-0.1327140329554552 -0.1288646424115178 -0.0256969175523536
-0.1582356753793457 -0.1383060861851868 -0.0240126925994417
-0.1411531268469989 -0.1470203132985817 -0.0167288003799404
-0.1451652674287685 -0.1229557691081394 -0.0293991668340174
-0.1673967322457318 -0.1523385276927280 -0.0219447201889043
-0.0943502514059796 -0.1471336863073921 -0.0042009686958392
-0.0954673828937339 -0.1372817317365430 -0.0104121954028349
-0.0869710314450206 -0.1291552701983743 -0.0137666354808413
-0.0929620602060931 -0.1562739568531567 -0.0003683671031731
-0.1032641566359664 -0.1433270105102262 -0.0072295279963376
-0.0775995225998891 -0.1339322788526789 -0.0099970781133559
-0.0843778427720425 -0.1503732305692159 0.0012092613337318
-0.0851115313636456 -0.1396809908907567 -0.0071960262341640
-0.0805137190667857 -0.1588484911358335 0.0088869515395107
-0.0713651492208462 -0.1512598090209206 0.0079090046455142
-0.0252318521810886 -0.1403765712278872 0.0042359932653844
-0.0583845869051892 -0.1319337845284675 -0.0094619636030009
-0.0616819217067626 -0.1433174168237856 0.0001847165341666
-0.0688092693284706 -0.1603594206098654 0.0195682270048949
-0.0651848355034926 -0.1711564675056702 0.0300460554054427
-0.0349826923424681 -0.1504728221713140 0.0141951534751892
-0.0523285342693524 -0.1611976499275239 0.0241077157794257
-0.0595280629604709 -0.1570966154654414 0.0187940317372091
-0.0299434181886018 -0.1302864115139466 -0.0019953344989155
-0.0504180201410311 -0.1436181332094784 0.0068603994894794
-0.0473153001215392 -0.1523891991080157 0.0155544113350167
-0.0679434010570188 -0.1384127207713781 -0.0066094408346507
-0.0594619731205465 -0.1506382751922307 0.0114900384604037
-0.0456925965864371 -0.1146041605000900 -0.0177161886796404
-0.0411127534165613 -0.1272273960660176 -0.0086024911225089
-0.0503106622213383 -0.1370452016815601 -0.0032915481335616
-0.0523984311277056 -0.1220823248700142 -0.0135132403342176
-0.0746359871741550 -0.1448712894656946 -0.0021001036460767
-0.0691062167659190 -0.1290152861307464 -0.0100747412893039
-0.0562049927143186 -0.1171671975871118 -0.0204484096656391
-0.0401675468810527 -0.1332579036081969 -0.0015327056194447
-0.0620688670598684 -0.1631002073873290 0.0259250340966088
-0.0387720462057828 -0.1387740448904579 0.0062725958440689
-0.0734500247932077 -0.1711719240004912 0.0255245357578959
-0.1356833550492011 -0.1916395210390115 0.0180064357646539
-0.1620378208245813 -0.1776792225306965 -0.0020072123964134
-0.1352584917925443 -0.1525254142273990 -0.0110036537859371
-0.1431684101224814 -0.1691576686199844 -0.0034261643052049
-0.1233949086839043 -0.1904927709478810 0.0247549089123253
-0.1004437651031560 -0.1700270393483908 0.0148731073169942
-0.1432192718886905 -0.2066016745170560 0.0286423315703665
-0.1068806718626125 -0.1566814220355938 -0.0014928080663106
-0.1104310972493341 -0.1832249824163337 0.0240626406812273
-0.1297964863123413 -0.1848863652586727 0.0137846046078248
-0.1651146531187572 -0.1956893891734107 0.0056287528873855
-0.0989631394958176 -0.1627658369587253 0.0054545437240825
-0.1205058385386380 -0.1744747789787864 0.0083439184308231
-0.1527068186555325 -0.2038026784278157 0.0191290493589457
-0.1423602562504105 -0.1791808628797621 0.0027512560781429
-0.1287183386932982 -0.1729660956456276 0.0030658680811009
-0.1340158809773760 -0.1795913356067579 0.0068366436944830
-0.0997912421444555 -0.1799035491881058 0.0255001708399520
-0.1577262963135690 -0.1889243554955739 0.0025353219928599
-0.1082644469211216 -0.1655634625213313 0.0059153452347074
-0.1534514714602106 -0.1696887476908054 -0.0073787631187476
-0.1269492933697920 -0.1635588388974495 -0.0011748458871358
-0.1323025704036678 -0.2025438116439563 0.0331656785867586
-0.1444011226897348 -0.1982485431016351 0.0194062003005641
-0.1211374990363486 -0.1994736797022151 0.0347999554578844
-0.0918642683719573 -0.1723701830509637 0.0229098755009798
-0.1520447020103914 -0.1763498116953510 0.0005355713525670
-0.1356209199469684 -0.1606898698094874 -0.0054094686258853
-0.1483292043045959 -0.1862379329412739 0.0055218518099041
-0.1106050018511629 -0.1737390345972318 0.0110158362449093
-0.1171107395038124 -0.1635921883788859 0.0003592302589439
-0.1441098096395612 -0.1915330006633730 0.0124698127232459
-0.1744162651055354 -0.1786900620639180 -0.0067385748997564
-0.1568601234806429 -0.1959638371319447 0.0117312511480540
-0.0995072385696652 -0.1899905871469348 0.0368432583890030
-0.1238645424772842 -0.1538924003346370 -0.0057182939608315
-0.1703097104667311 -0.1881030674099236 -0.0002678618166521
-0.1190107462612701 -0.1808818387137608 0.0160258724972423
-0.0895226474767559 -0.1657040937820921 0.0123516428712152
-0.1650806945143722 -0.1703036953776135 -0.0097610429707688
-0.1121459306304138 -0.1914232062518857 0.0329092378253930
-0.1357780736677102 -0.1983124629410551 0.0247920654121906
-0.1059421656795387 -0.1770348465914337 0.0186920036433172
-0.1124201882380264 -0.1479960521218894 -0.0079476839527511
-0.1100322739987305 -0.1989226518548270 0.0423482070370832
-0.0998273326791608 -0.1969207692842140 0.0432618914600011
-0.1188359279750185 -0.2234179982506751 0.0570055325495311
-0.1148338379219011 -0.2110480055506329 0.0489791194556725
-0.1054938511893603 -0.2246732483670271 0.0569044181400621
-0.1307949911058534 -0.2104858231392484 0.0391716308600721
-0.1247339132056905 -0.2132185009674586 0.0479966041395615
-0.1043581414516734 -0.2122489675841899 0.0543686393049907
-0.1073366003896485 -0.2059289743606827 0.0476567135342360
-0.1212166850196681 -0.2069516917914021 0.0417969507685894
-0.0802825569077875 -0.1664704085216301 0.0212798624904938
-0.0910548962539892 -0.1812736570504554 0.0327596981415088
-0.0792153735018194 -0.1771166974876534 0.0301343782329914
-0.1005512753035861 -0.2002367584760887 0.0518547888960693
-0.0893172207623366 -0.1965222886652689 0.0457964520491753
-0.0699743692484281 -0.1793925331044047 0.0336048562327078
-0.0817531319864738 -0.1878146476937559 0.0405494669698322
-0.2652240097231252 -0.1977483770204561 -0.0398943552386001
-0.2656225284122545 -0.2150261494578331 -0.0230996172994724
-0.2692058464382013 -0.2080290780067594 -0.0295718531899483
-0.2759395483543688 -0.2093275377822786 -0.0379052642499079
-0.2295047354550483 -0.2004784660761347 -0.0132555813269553
-0.2424055026644372 -0.1861352576542486 -0.0277289517089230
-0.2344821836296306 -0.1659288601501298 -0.0330161389028744
-0.2190361961794668 -0.1685791540995403 -0.0341162149480681
-0.2086744057006296 -0.1709536676339667 -0.0254359083688734
-0.2314763141589679 -0.1757084052304627 -0.0314421652036612
-0.2251924495403502 -0.1605514846895996 -0.0352759850422246
-0.2560827493525691 -0.1990584482021832 -0.0291539948472006
-0.2432074130262847 -0.1762368193883835 -0.0427362183553496
-0.2185658009824012 -0.1908065834769690 -0.0150750315744591
-0.2077043774049651 -0.1825336659398435 -0.0165536775322145
-0.2059791889337590 -0.1581630755379080 -0.0329552266080132
-0.2537970154879028 -0.1866677453218882 -0.0402567833930242
-0.2311236319717216 -0.1890656720196519 -0.0209372308319002
-0.2412461894124916 -0.1789452084390178 -0.0338146990885046
-0.2422746935112227 -0.2005295562634495 -0.0211616926384636
-0.2558520440357823 -0.2117892701089093 -0.0207270834146290
-0.2002956149809983 -0.1657754373074482 -0.0239121873129207
-0.2501294862143105 -0.1911963079535278 -0.0321356516806559
-0.2298656408021008 -0.1655241740911458 -0.0419577592270230
-0.2197368398511077 -0.1796091524530048 -0.0239091416981777
-0.1863138068185605 -0.1753723216435661 -0.0117096272833783
-0.2183280907517055 -0.1564794977781289 -0.0423338926477908
-0.2164727022502336 -0.1582468680135264 -0.0316066283997864
-0.1967613313524149 -0.1750764401712778 -0.0202537948835576
-0.2861219521248399 -0.2294269961387316 -0.0254794606596992
-0.2993070274704934 -0.2391666627010225 -0.0270351606704540
-0.3142376969061315 -0.2476653935362539 -0.0338743931374686
-0.2914170579171232 -0.2260585843030921 -0.0352187274850551
-0.2826199520125328 -0.2158861168507202 -0.0367616359138890
-0.2926627143470346 -0.2338924003346370 -0.0306862436244338
-0.2779467607507822 -0.2213717068100898 -0.0255016936473235
-0.3017074287302358 -0.2381176387729600 -0.0365828583284715
-0.2265577986296638 -0.2235504634569061 0.0041726444787288
-0.2278115259386443 -0.2334988307694651 0.0101907792110145
-0.1902475228206962 -0.2330863022525177 0.0262996447100051
-0.2094447939498865 -0.2481729071630004 0.0304581270801787
-0.1945660522456175 -0.2269001637969679 0.0194744220708086
-0.1903126989761977 -0.1949911439233800 -0.0023824321327583
-0.2056389937669592 -0.1937717939908118 -0.0082394538451362
-0.2194220755674124 -0.2359345611602270 0.0166946894948176
-0.2355944421337959 -0.2255863998073649 0.0039381321435132
-0.1846796822281719 -0.2138562146244710 0.0138826734025513
-0.2014328475260568 -0.2435950817128919 0.0309131419227918
-0.1885899469967861 -0.2069550419676195 0.0052785071919343
-0.1773155380601910 -0.2069658538999573 0.0103735160955980
-0.1853947925698423 -0.2230362494777248 0.0204039436903904
-0.2162401695646010 -0.2451315562805811 0.0249528738706242
-0.2150007566449129 -0.2135361585851597 0.0024201977555723
-0.2476026919427312 -0.2267765308734919 -0.0032948983097784
-0.1952680664438928 -0.1850829596903372 -0.0110797941545141
-0.2434375092201229 -0.2109291123651008 -0.0117982546724013
-0.2395266353285601 -0.2218195263878724 -0.0034876857230147
-0.2050283480109757 -0.2325834141531621 0.0209527634670898
-0.1940516479155148 -0.2181026771905347 0.0130012724959098
-0.1844701439338494 -0.1850930863593579 -0.0053500791383956
-0.2039690832033396 -0.2151637351038508 0.0067388794612302
-0.2018654771003084 -0.2046656152950773 -0.0005276527542351
-0.2281878116401493 -0.2109927657132307 -0.0036180380340176
-0.2350073998920711 -0.2078260877841345 -0.0095387130945254
-0.2379575346129358 -0.2340265977342531 0.0068378619403808
-0.1778477592365407 -0.1973258741152252 0.0036092057512627
-0.2081397480324855 -0.2402997836661779 0.0251758128698161
-0.2030899665077555 -0.2237380352548942 0.0142585022618448
-0.2132781569462384 -0.2255000946995835 0.0100811370802643
-0.2156417062675897 -0.2022501001721725 -0.0061151375618522
-0.2006741848935607 -0.2558474756136677 0.0414238629625646
-0.1916544445512526 -0.2869360068754753 0.0531985141207072
-0.1802621703241011 -0.2694761257115556 0.0562776306259405
-0.1902118891282024 -0.2422603791219303 0.0333849628482589
-0.1819739580904378 -0.2652009391914464 0.0464494318500872
-0.1803698328052682 -0.2773182410432754 0.0484625831952496
-0.1944191013342649 -0.2672459552808581 0.0476250391409082
-0.1941646402224823 -0.2787420469005636 0.0476305212474457
-0.1932369459717464 -0.2493329818186318 0.0391612757699457
-0.1752203073977032 -0.2788152749000420 0.0593811120491182
-0.1885454810215374 -0.2549686254093735 0.0453725024769414
-0.1905060955123820 -0.2759717938004609 0.0561332684871194
-0.1825306964654690 -0.2449026021922716 0.0418389802520437
-0.2972519989226139 -0.2586733111828312 -0.0177265437697673
-0.2827755829259032 -0.2682714518350306 0.0030871873843023
-0.2731657547271273 -0.2573239896411029 0.0032461684738900
-0.2885783926958546 -0.2830892431742539 0.0063883292043046
-0.3024354829345641 -0.2760181632849240 -0.0109789843065183
-0.2773557592098915 -0.2334521186533434 -0.0143227647329234
-0.3137980624179708 -0.2921437606299093 -0.0098676394867758
-0.2952170714320387 -0.2790748564516115 0.0001058351123213
-0.2905237791129839 -0.2930042800404687 0.0110928902979087
-0.2900684597088965 -0.2396178134199304 -0.0234693549292799
-0.2643674305766397 -0.2342134271636476 -0.0080390523950434
-0.3171071228363050 -0.2587991712120881 -0.0256935673761363
-0.2790200353862364 -0.2765355180543091 0.0106829505534929
-0.2871987292172486 -0.2561101027799801 -0.0051137394343347
-0.2697628893747069 -0.2691580683569195 0.0097863215731362
-0.3116105496287683 -0.2711985160242165 -0.0148989950423103
-0.3094239505239886 -0.2842575790598759 -0.0153262947907615
-0.3080949965308546 -0.2605525125845753 -0.0190203209126185
-0.3076922139810850 -0.2548280322187970 -0.0294451556166371
-0.3177613208831142 -0.2683298324626366 -0.0217071622389456
-0.2648585359539580 -0.2744364423032081 0.0197308628321743
-0.2789093272903262 -0.2864753195754033 0.0172298040051737
-0.3020896533804898 -0.2655391547086632 -0.0113264889487014
-0.2934542696187558 -0.2617137483808276 -0.0090130399898733
-0.2994894597936026 -0.2896767936529389 0.0053464244007039
-0.2975366116203528 -0.3011183687687437 0.0063295488397641
-0.2954020925276795 -0.2698041193842910 -0.0042125420318623
-0.3210502802441442 -0.2776737023539747 -0.0206926679680325
-0.2944512516048963 -0.2481838142707990 -0.0182150603745535
-0.2644668698980006 -0.2412262787061087 -0.0013551462799244
-0.2666534690027803 -0.2228926106724052 -0.0166185491262417
-0.3123625119088296 -0.2985902039705299 -0.0014355505091411
-0.2644680881438978 -0.2567188069565648 0.0064044709624422
-0.3056644436851559 -0.2459691574401990 -0.0238616301081859
-0.2599257060353616 -0.2478849062188599 0.0039500100410105
-0.2838039347438973 -0.2452275692853561 -0.0130981230447391
-0.2582134614268136 -0.2601386706462700 0.0131916234173511
-0.2720387249914581 -0.2798240967134962 0.0176187290078624
-0.2737491422311604 -0.2456087089353579 -0.0042533532694198
-0.3049628863290921 -0.2824370247770278 -0.0018509723600945
-0.2671081792839190 -0.2856176934988499 0.0261936573169467
-0.2591470946262984 -0.2789645671277284 0.0259128516376366
-0.2489849441938688 -0.3189106978169605 0.0479868581723843
-0.2670929512102038 -0.3337550240746329 0.0389663564263899
-0.2865293030967241 -0.2999913771032588 0.0193629525712127
-0.2674004060185156 -0.3264123324554984 0.0305866520223358
-0.2792645982501041 -0.3224653489941382 0.0333831354794131
-0.2601376808214786 -0.3260701005338392 0.0426935797489462
-0.2754281896390091 -0.3367288384501249 0.0276445881805402
-0.2678776538487530 -0.3183582233025695 0.0389547830903662
-0.2737358938070281 -0.2971958834709730 0.0243050716147754
-0.2721413622082993 -0.3084833695158711 0.0315712992687669
-0.2587928896316806 -0.3111487202231675 0.0386240293292700
-0.2906573293194670 -0.3095950950374564 0.0200448657121837
-0.2834182076366887 -0.3106372092270706 0.0262783254068037
-0.2543508605289282 -0.3024686420650791 0.0397673531038145
-0.2636788170832339 -0.2994017651240946 0.0330542090871626
-0.2369361877088507 -0.2437672921915197 0.0096017573197067
-0.2256345205203054 -0.2549920005025265 0.0304142702278786
-0.2518271118720919 -0.2347594107116175 -0.0006028794383886
-0.2535981368451811 -0.2700428384748704 0.0231230685329940
-0.2481726787418947 -0.2601046930067927 0.0200402972900691
-0.2464930222110974 -0.2401778448659026 0.0060910772053814
-0.2381195613172666 -0.2561814272702441 0.0238159458870401
-0.2447192561847395 -0.2660354376310448 0.0279025517492768
-0.2456365953453491 -0.2490168089381179 0.0114102433541355
-0.2253186902714500 -0.2484017089705728 0.0238936090629881
-0.2543360892974244 -0.2215312589524418 -0.0093523214722502
-0.2543268001724581 -0.2525416321259057 0.0099483482774669
-0.2295714344179213 -0.2436611715528162 0.0163258655494331
-0.2381084448234544 -0.2494225038569856 0.0173638110538684
-0.2129204494946660 -0.2557599712950811 0.0354995331643652
-0.2064619188705339 -0.2700354718942107 0.0432466633862858
-0.2354583031547811 -0.2687764908997984 0.0316861189445803
-0.2130311575905763 -0.2641823333406302 0.0400914065124761
-0.2305839490392515 -0.2858475232013980 0.0420183669604099
-0.2176790702499594 -0.2760644756641106 0.0440586242767855
-0.2205955509279133 -0.2874124552318427 0.0424761228562917
-0.2385247803588306 -0.3008696372196965 0.0491734296762797
-0.2391428878709346 -0.2828499720660023 0.0379676993521406
-0.2208168148389965 -0.2674579871722514 0.0365292555089936
-0.2434256313226250 -0.2937417756505005 0.0447889626921711
-0.2343059948167446 -0.3008901189788435 0.0404306879948529
-0.2114938835490169 -0.2957708022625111 0.0520034148955307
-0.2360706239988733 -0.3098826772095697 0.0519205741745194
-0.2000921679161620 -0.2935883908780033 0.0541140259124709
-0.2395481069124986 -0.3078159230449296 0.0433496051646012
-0.2238301460657798 -0.3034511573811901 0.0546567544596841
-0.2127725848988905 -0.2831676487187956 0.0539075332328915
-0.2482034394507996 -0.2861954466156083 0.0390071676639469
-0.2021674498020828 -0.2840749183156609 0.0490698787750157
-0.2233795473645440 -0.2950328307751756 0.0488311025791598
-0.2294295087708947 -0.2749333153134462 0.0432704191812817
-0.2481425271559385 -0.3049082556146385 0.0476113338745645
-0.2538050863669720 -0.2927268055022838 0.0356996300529842
-0.2426946837842907 -0.2749084745181981 0.0339005854242589
-0.2080599529262172 -0.2789596180037709 0.0415593928186308
-0.2328954183484965 -0.2912540413880009 0.0496196122361374
-0.2505372940284062 -0.2800481207129404 0.0309926324675856
-0.1518412549455550 -0.2094074090289153 0.0266352714546903
-0.1750142715603352 -0.2151024421071467 0.0194576711897218
-0.1599479199878938 -0.2141891003158874 0.0280953391625131
-0.1667219762994069 -0.2026641514964914 0.0128672654472152
-0.1775275128463080 -0.2259256812897418 0.0302884863389902
-0.1649221702669958 -0.2092398621478627 0.0204806931819161
-0.1683259493038393 -0.2208021768531377 0.0282610206045361
-0.1455216043537065 -0.2153176909291124 0.0361543403341230
-0.1367654619674102 -0.2171529783732801 0.0437275659542149
-0.1575420366216139 -0.2585563215065134 0.0559614958156109
-0.1248106626972156 -0.2304997758617901 0.0543116863092955
-0.1563231816014415 -0.2671346570970914 0.0622470355223372
-0.1480266224798729 -0.2359195234374331 0.0517676843144178
-0.1373183933240126 -0.2542305397114852 0.0635054835341694
-0.1774783261682076 -0.2538771341907374 0.0505086271796370
-0.1344899309121332 -0.2327529597188898 0.0535944440373044
-0.1426881166775009 -0.2251903747153065 0.0454419424930831
-0.1299346049409390 -0.2214645409544767 0.0497575785839991
-0.1398235637309163 -0.2405877465401341 0.0620055182732126
-0.1635080913417933 -0.2267243937561092 0.0366519937831389
-0.1614827575376586 -0.2673623167991351 0.0545988877795660
-0.1682105205050773 -0.2397407991502735 0.0431604724890572
-0.1315746684800766 -0.2448762195545599 0.0623505864236012
-0.1746338742789270 -0.2450977118867489 0.0470768284871575
-0.1705213806913737 -0.2650190969561936 0.0564427029450143
-0.1538574519054605 -0.2221313783024696 0.0388341767465411
-0.1517083138620204 -0.2492631801357393 0.0599363276167779
-0.1476512504627908 -0.2595452706837691 0.0619034901793201
-0.1421057951386279 -0.2484836360071611 0.0538469254995046
-0.1560828825982140 -0.2320030151585957 0.0440229905842917
-0.1562138440321656 -0.2439495722338919 0.0480084820370594
-0.1776711135814432 -0.2363373627450888 0.0359499795848637
-0.1253116663224489 -0.2382776477575234 0.0610915292888204
-0.1646858305629344 -0.2522013037134610 0.0517786485274929
-0.3080039326500371 -0.3057067015897158 0.0060158505212284
-0.3148198661642673 -0.3112236042756625 0.0030853600154565
-0.3069961387315587 -0.3413730011963557 0.0173357913982322
-0.2852688754353089 -0.3428493819781459 0.0256195589378799
-0.3009965822492057 -0.3279474174614611 0.0155739032693723
-0.3098456158851652 -0.3161728805138714 0.0107000059960540
-0.2966935854594739 -0.3477760825970719 0.0264726356274109
-0.2921504419472520 -0.3193855852957721 0.0236992988423809
-0.2987784610318354 -0.3110920337187623 0.0161291188370320
-0.2808172526461159 -0.3468175514970624 0.0349245211008755
-0.2937030963432637 -0.3396736814153733 0.0326811212811373
-0.2962830365921095 -0.3358729826371408 0.0220028914304967
-0.2863490027039350 -0.3305934665853235 0.0255881891060264
-0.3010535352449009 -0.3193530923934821 0.0116502377958886
-0.2950622019223541 -0.3514597916989867 0.0170805688827638
-0.2880818052119987 -0.3572281669872494 0.0291807962569395
-0.0074614515590218 -0.2830882152792782 -0.2276510220416849
-0.0329736525772089 -0.2998445784726433 -0.1923980313907704
-0.0522423433721238 -0.2425574978752079 -0.1984009380493409
-0.0381990137918762 -0.2973575294734608 -0.1813363586439781
-0.0738878319125225 -0.2392998131705707 -0.1318737478478449
-0.0723261929530187 -0.2380541757757514 -0.1206756315605635
-0.0797941925837379 -0.2456625401759414 -0.1351127591270888
-0.0479460469348269 -0.2898127422810323 -0.1449881649314594
-0.0482012694502952 -0.2821403438308694 -0.1649436418509343
-0.0595725289357196 -0.2699169403754292 -0.1243611299611399
-0.0521260008889390 -0.2746906369237008 -0.1272986253808208
-0.0735464184998255 -0.2542162062871007 -0.1377551344781672
-0.0584285960382264 -0.2686152446342455 -0.1472288236979283
-0.0667945951759367 -0.2687097919369254 -0.1410057190934347
-0.0434344255351956 -0.2820140840646775 -0.1230439015847666
-0.0495976838099880 -0.2896370864507263 -0.1701534704304125
-0.0530208025004498 -0.2626820064129226 -0.1258994699678593
-0.0705239504288132 -0.2491586584447759 -0.1294348195616034
-0.0577929762413499 -0.2654944983824931 -0.1144918153862553
-0.0472994629248753 -0.2719544566385360 -0.1181167060534448
-0.0665468344165888 -0.2615694052770987 -0.1290139156041120
-0.0353869976996093 -0.2865942317960276 -0.1494548635136305
-0.0461348198471293 -0.2804564995798004 -0.1324207402556984
-0.0650246361680076 -0.2568389183879943 -0.1164598916332204
-0.0598106960086268 -0.2726873647913612 -0.1644435519101239
-0.0399417145478548 -0.3006613552414554 -0.1690418210491952
-0.0411671176397248 -0.2879689271155840 -0.1662045263545610
-0.0551713110705242 -0.2680448200279626 -0.1369398234114502
-0.0488609496036419 -0.2865119811628729 -0.1553085350497910
-0.0377083652567692 -0.2831922991631222 -0.1360142610910344
-0.0711437330290258 -0.2504713183990346 -0.1188799371080556
-0.0507163381051138 -0.2794113588105352 -0.1406286719882439
-0.0648773806951807 -0.2631481948546243 -0.1608153110667176
-0.0668611418580726 -0.2579255746932258 -0.1485131594350765
-0.0601872862716062 -0.2763725586304632 -0.1534053303968526
-0.0572762877001898 -0.2836358548802646 -0.1675902810626531
-0.0624769794354384 -0.2483307842172438 -0.1232912055019030
-0.0470678439236656 -0.2890323415733075 -0.1796697982565759
-0.0737826059231498 -0.2309183194678550 -0.1079790728196968
-0.0632359466294088 -0.2175080970523209 -0.0895482306405969
-0.0778963177566003 -0.2199457309522972 -0.1073096466991723
-0.0688998763670767 -0.2169046846313522 -0.1005544731990661
-0.0541453957443246 -0.2484917068862302 -0.1015455162364577
-0.0463850170982717 -0.2593727556436670 -0.1137709183765731
-0.0580491124412412 -0.2470647221685539 -0.1104359702329229
-0.0663701887614914 -0.2491845080999076 -0.1017946475224400
-0.0619788691442110 -0.2319602052363636 -0.1062576913669195
-0.0640999875320148 -0.2412633590656055 -0.0974174900137148
-0.0615911623874195 -0.2557607136636748 -0.1066347384721103
-0.0554483097314055 -0.2357632453309299 -0.1000571243115245
-0.0560245400407924 -0.2282529497254664 -0.0898765479098993
-0.0660776574654205 -0.2414240152433018 -0.1122051678371662
-0.0700393931231924 -0.2311036641600623 -0.0964310153984378
-0.0787624905895265 -0.2075729591288020 -0.0910984485448148
-0.0766760922097935 -0.2051438148799219 -0.0813932926045812
-0.0750029837506937 -0.1955505091411272 -0.0819341937829486
-0.0679170564894913 -0.2127930666580375 -0.0742086874257036
-0.0764298542578171 -0.2240129781258239 -0.0981624473798672
-0.0600407922024650 -0.2005551013571070 -0.0684049639713293
-0.0742869597246005 -0.2142208889197681 -0.0833607597285977
-0.0729360773053164 -0.2243302360065900 -0.0873974175090488
-0.0731565798127139 -0.2019870351987407 -0.0717042784224858
-0.0609786892625902 -0.2224997454056427 -0.0792101959567561
0.1036335897042992 -0.1973529800864384 -0.1151009383348672
0.0918362487163208 -0.1898172916680547 -0.1162290340356965
0.0818540941152059 -0.1895877284567966 -0.1023854967825936
0.0970238443081742 -0.1892094631057086 -0.1277198338997859
0.1089321979535371 -0.1923120308444634 -0.1314765996853499
0.1066004753062507 -0.1867042165584364 -0.1555707624791685
0.0882734885898897 -0.2109862557117174 -0.1029988835918457
0.1033174548939696 -0.1946793871842436 -0.1239779916264630
0.0927753640223433 -0.2063309955067666 -0.1100452178613884
0.0870014875924509 -0.1959534439716340 -0.1079419163198314
0.0864682004509412 -0.2031659926657791 -0.0981094536833379
0.1033584184122638 -0.1853008734252031 -0.1422239649906585
0.0424538898686672 -0.1884899366226608 -0.0735155055101833
0.0810897970954352 -0.2024317710915960 -0.0898412187788798
0.0762169657872770 -0.2225497886628895 -0.0868284966750453
0.0491269840514479 -0.2237894871089598 -0.0618118171755540
0.0368170661022126 -0.2030149301745233 -0.0619500880848889
0.0400706963322231 -0.2228057725820436 -0.0603767235086243
0.0380913513107087 -0.2134035601332838 -0.0619735393184105
0.0768586768136396 -0.1944821455594462 -0.0914407756419347
0.0644886079732289 -0.1907491355688781 -0.0885273405787239
0.0567006665137513 -0.1894960554530305 -0.0757168758464667
0.0370619335275546 -0.1953191185610232 -0.0678299519078397
0.0452276834959087 -0.2009563991696894 -0.0654616818836366
0.0738320971627242 -0.2051541699700483 -0.0841721114961487
0.0671937229880144 -0.2064143692103578 -0.0747635984318891
0.0655542685718254 -0.1944617399406677 -0.0756114975763563
0.0368091475038806 -0.2316199339291952 -0.0642068886094960
0.0817700351482975 -0.2118533041588821 -0.0912056541837705
0.0571549199526786 -0.2056438667505480 -0.0725774561693209
0.0474482412050735 -0.1886297303393672 -0.0812790820517164
0.0482732982389683 -0.2103062080097765 -0.0720974672858148
0.0531487183196581 -0.2118099041487936 -0.0623776923948145
0.0665884070578313 -0.2162703592207415 -0.0770934937103297
0.0812551739759833 -0.2179306760979204 -0.1024062069628464
0.0569621325394429 -0.1985624317710917 -0.0825585448052758
0.0536317528179073 -0.1974129786968767 -0.0689796714733447
0.0595633920914901 -0.2176658598960114 -0.0690673851779448
-0.0206284054969541 -0.2254058709934701 -0.0398599397920036
0.0097117040119311 -0.2324944822026648 -0.0428693117196207
-0.0038234647484371 -0.2136247098338142 -0.0501800053488609
0.0263116748882401 -0.2189560013362635 -0.0584080381387106
-0.0350736039425484 -0.2147885153675059 -0.0511211003044663
0.0082613822712861 -0.2386457102992222 -0.0507023282772950
0.0007505917534269 -0.1999318543701241 -0.0570831957254797
0.0288996860161549 -0.1982906487254579 -0.0600605886982947
-0.0219556844019794 -0.2086375918324227 -0.0456408211358049
0.0115887163780787 -0.2232985340123786 -0.0470287077742172
0.0061576238875177 -0.2122699442557327 -0.0514189614263375
-0.0141593675019584 -0.2051468224244807 -0.0508067928629825
0.0296320040811236 -0.2086677434183790 -0.0570174104470296
-0.0172068096138638 -0.2414540335836131 -0.0458086345081475
-0.0235856974124649 -0.2329537799410104 -0.0454483382840436
0.0153896435774170 -0.2323024942632992 -0.0529984172320882
0.0202961289284860 -0.1972571193624006 -0.0668230716737842
0.0202588201478835 -0.2114046851072295 -0.0524410697341083
-0.0011125630656398 -0.2358837945694786 -0.0403752578065292
0.0205470875833141 -0.2013548417184501 -0.0538240833889322
-0.0298878357195409 -0.2256091657775693 -0.0474115415474197
0.0345821940037555 -0.2240247798829532 -0.0523880760375791
0.0228648004027824 -0.2302430115038580 -0.0459947215689484
-0.0046011624730774 -0.2419359830816102 -0.0336575453677627
-0.0044511659469817 -0.2026790750087324 -0.0495717960846713
-0.0188579896468135 -0.2189429622981448 -0.0478689928818273
0.0203041998075551 -0.2214085587484808 -0.0506088279046837
-0.0104581841854552 -0.2131102293633428 -0.0423588666886839
-0.0099337293267004 -0.2289288477773200 -0.0415499514129273
0.0090087761292329 -0.1970715652841797 -0.0614052276073555
0.0247029811809560 -0.2321593313352832 -0.0588076227930000
-0.0008227728228377 -0.2222344913966143 -0.0432506226854518
0.0093095305851100 -0.2029294245406119 -0.0530325281172105
-0.0590107652963622 -0.2293382735742479 -0.0454611298659644
-0.0643579511007519 -0.2368326558426788 -0.0461939047731445
-0.0619979042363551 -0.2289727046296200 -0.0366864092297355
-0.0518046885335462 -0.2349241403990327 -0.0401404409098393
-0.0404972346769889 -0.2369349884980456 -0.0364083446036941
-0.0321298650126442 -0.2397848463534951 -0.0463997883297754
-0.0403668823659860 -0.2275429598235828 -0.0423765312541937
0.0632362511908828 -0.2273534274111038 -0.0665949551295290
0.0685584629543794 -0.2289068812809857 -0.0776837338475352
0.0059241775174622 -0.2448971200857341 -0.0328949234361006
0.0462782683015271 -0.2382581558231679 -0.0499381835382620
0.0993039437855657 -0.2031256382704335 -0.0926358748671113
0.1073582242543239 -0.1946842982380168 -0.0822271819212309
0.1094976163305861 -0.1776273328695117 -0.1026769621135044
0.0966947656351866 -0.1941153393338289 -0.1052285781452397
0.1059187144460168 -0.2084495251220388 -0.0850797046895805
0.1065723033698774 -0.1830364588637383 -0.0950406922682311
0.1021643851522473 -0.1925967958229395 -0.0938742218216393
0.1050689879327032 -0.1813731725121849 -0.1103677484626784
0.1008101525567458 -0.1844116300605983 -0.1025444778721813
0.1050534552975136 -0.1831973434625404 -0.1197089534411164
0.1222372705200671 -0.1562760126431083 -0.0472671794085987
0.1212215580032568 -0.1491398327386454 -0.0536964721311975
0.1173059634088422 -0.1477623773307281 -0.0735155055101833
0.1179778260211612 -0.1526799030352407 -0.0639717671513318
0.1233253163870252 -0.1926673018042413 -0.0649722515944269
0.1049317829885284 -0.1721287038720233 -0.0924135449908673
0.1244595033173405 -0.1614322764732924 -0.0357638925240627
0.1273179650344391 -0.1412496347641695 -0.0506146145726955
0.1237628189448657 -0.1431362027465735 -0.0608280836135458
0.1125701847641218 -0.1520693334196258 -0.0830251329839125
0.1088112870482376 -0.1799741693799605 -0.0862145007428445
0.1150881467529462 -0.1698175771944369 -0.0512331789270115
0.1238595172129578 -0.1684685982843672 -0.0431555995054683
0.1179525474187938 -0.1799402869159440 -0.0503603057416500
0.1114003641413126 -0.1661677886267229 -0.0847812344447606
0.1108675338420143 -0.1708259421656796 -0.0729660766105353
0.1163526859942645 -0.1912533751597759 -0.0736866690587432
0.1299697817912211 -0.1755159223787013 -0.0409399147798930
0.1143777571141276 -0.1643596071537684 -0.0631884350394169
0.1072397498408189 -0.1619530385241713 -0.0961514279650249
0.1110852952961431 -0.2031629089808517 -0.0751485641354118
0.1182699004750206 -0.1592175435023238 -0.0558034284104461
0.1119621277806699 -0.1810172924294584 -0.0761030597958867
0.1135158481418417 -0.1595347062076291 -0.0742653358599246
0.1246454380974043 -0.1854497278457701 -0.0557492164680191
0.1168932826111577 -0.1777125720121330 -0.0632694483915823
0.1353643269048653 -0.1442615954643183 -0.0304693958547280
0.1345520614528914 -0.1649083507900992 -0.0264899956314464
0.1357730484033839 -0.1528851774689229 -0.0239983782101488
0.1280116037921709 -0.1444677835824234 -0.0405595174984843
0.1305749454406670 -0.1525723928348107 -0.0340583482679494
0.1297614617427958 -0.1940450617736328 -0.0477264581118521
0.1313512726386729 -0.2029522666511848 -0.0582362654672021
0.1320915093019735 -0.1939883752692277 -0.0375382676733692
0.1244263061166412 -0.2029086382199905 -0.0697919369253187
0.1379392418893850 -0.1786414845087662 -0.0364381916281761
0.1197518966089934 -0.1956891226821207 -0.0541527052197078
0.1399842199086124 -0.1814357979653391 -0.0278507762986454
0.1124638928095890 -0.2049295558827477 -0.0637865937749538
0.1295389795858153 -0.2146386711221473 -0.0513452575495555
0.1216060668645680 -0.2077491860118723 -0.0585039750031170
