ply
format ascii 1.0
comment object: PointCloud
element vertex 812
property double x
property double y
property double z
end_header
-0.0731267872549249 -0.1878881792275311 0.5174910915477281
-0.1323388299702734 -0.2134769708647856 0.5439600234308368
-0.1316510260883575 -0.1374591673856314 0.4960944129889931
-0.1358141685903836 -0.2019346692302092 0.5391217958365747
-0.1043755816196531 -0.1920821294645600 0.5277031491016646
-0.1254802932952900 -0.1690095383856604 0.5167033745068812
-0.0769145841415065 -0.1805693636860181 0.5141867499888709
-0.1202217803620474 -0.1389045871728178 0.4949446344019235
-0.0951119218161867 -0.1860293987757456 0.5230695527013648
-0.0747562761927576 -0.1740587565687247 0.5080263335474333
-0.0699933014374353 -0.1670509860948297 0.5030123040158163
-0.1070884994583916 -0.1821138487128230 0.5210317199548623
-0.0864471756867617 -0.1401234711838153 0.4878373747287540
-0.0881787682417475 -0.1618789609314109 0.5033367744725410
-0.0785381376441552 -0.1471055214385797 0.4908155499922626
-0.1299541982251636 -0.1938511717891591 0.5329404640521073
-0.1254964037622180 -0.1764384421178478 0.5198508509930188
-0.1115933534431530 -0.1939840124813720 0.5313757702816998
-0.0654331207175659 -0.1511010585566009 0.4901004713724774
-0.0955690916452391 -0.1586061337069829 0.5034769637987914
-0.0833333333333333 -0.1563619739278942 0.4990061679063952
-0.1326175127841502 -0.1505743593439647 0.5049873907332315
-0.1282399880160738 -0.1619094860266428 0.5131737690508036
-0.1033544041282365 -0.1580657264654694 0.5044676161949760
-0.1007255716212712 -0.2019897839854891 0.5328918500115527
-0.0934594683969874 -0.1331357681336376 0.4843869084084624
-0.0986955114684620 -0.1648148815492049 0.5083451512087441
-0.0976193605416509 -0.1958085935209070 0.5285287398717803
-0.0899798901803171 -0.1967445551214678 0.5272565782640122
-0.0105140228189219 -0.1669264832758513 0.4870943147716728
-0.0459438366511710 -0.1513140276237978 0.4857831488755529
-0.0225282622105681 -0.1730785618440547 0.4946608640721747
-0.0553779988962917 -0.1537936263318515 0.4895897413068838
-0.0758963037077392 -0.1281295111957144 0.4764696031525639
-0.0389029266641654 -0.1208078692564947 0.4598000747582192
0.0160707207102171 -0.1359579262437385 0.4558171151099927
-0.0520691351011038 -0.1202996829488371 0.4636224950167074
-0.0232451073289200 -0.1922676824740023 0.5083095385976402
-0.0132670755050950 -0.1570133172793942 0.4814336054447724
-0.0291726992592719 -0.1215336881875652 0.4576067901378498
0.0023039027606132 -0.1386612343302743 0.4617254168759966
-0.0209476699530607 -0.1595375730712130 0.4853077487812925
0.0092760606234043 -0.1743412550195055 0.4854411547530469
-0.0207428267792704 -0.1338265397331455 0.4664093231554751
-0.0006468564451407 -0.1684682832248348 0.4846079327091232
-0.0303480567455868 -0.1445481967935929 0.4768681252292030
-0.0181397851513784 -0.1485492453871421 0.4766250550264302
-0.0432828538702924 -0.1357151386807363 0.4725222561154412
-0.0383274720910892 -0.1616982127980700 0.4941501340065811
-0.0381510342142509 -0.1742741280739723 0.5003243997967819
-0.0653936924695580 -0.1342239312507020 0.4773141307873141
0.0139606735023094 -0.1530174975216023 0.4690195014375759
0.0069829335040477 -0.1453828320363699 0.4650978746195844
-0.0349285168690015 -0.1807520902977537 0.5036524830963750
-0.0033935497364738 -0.1194875175678281 0.4473136149697327
-0.0103711484148502 -0.1481076207454763 0.4728944926934085
-0.0350781039676265 -0.1374916709592580 0.4712266354067079
-0.0252895821100331 -0.1525614582516326 0.4809468997596854
-0.0624726104397239 -0.1453154224510660 0.4854561346608922
-0.0656756963007401 -0.1219880316189110 0.4698470706860867
-0.0089589388007171 -0.1249772298334756 0.4551721311533327
-0.0010270775966293 -0.1140999795792764 0.4426237732550702
-0.0573139400054691 -0.1245529875377058 0.4677527099854510
-0.0100858942263055 -0.1871777641639620 0.5007302705074583
-0.0163244605643328 -0.1905649191756243 0.5046143062359517
-0.0232232027466933 -0.1854309090613602 0.5046219375097597
-0.0216378762730273 -0.1194049867547936 0.4534511375897468
-0.0403975257714476 -0.1424474766981172 0.4768387306930538
-0.0142755342068316 -0.1769932639876654 0.4945195441868417
0.0127195316093720 -0.1679058300812093 0.4800896533352551
-0.0337958379880571 -0.1553981723099228 0.4870567236821742
-0.0174290874480385 -0.1692210942540039 0.4902494225316184
-0.0425066544001007 -0.1847392895425403 0.5077044068486442
0.0088641838176012 -0.1390435046201002 0.4584094870865420
-0.0281486953701486 -0.1345775136038053 0.4681060096987836
-0.0484021667164820 -0.1396004462881977 0.4774393402057197
-0.0590924507623855 -0.1407660527024246 0.4805068296367583
0.0155693884169982 -0.1290331105425339 0.4582082475698278
0.0029278300543586 -0.1622567089849061 0.4795028931713523
-0.0348647109407736 -0.1307956521524077 0.4662691338292246
-0.0469481264162903 -0.1660863365575463 0.4983928396040498
-0.0394227012024203 -0.1483471579511158 0.4818869596369208
-0.0033188621770753 -0.1550396437608328 0.4753336739142568
-0.0484817298119245 -0.1565328296692619 0.4912369658903252
-0.0215704666877234 -0.1409482140346189 0.4718269622796026
0.0173294569288786 -0.1186473708495231 0.4458958938800716
-0.0316157667769669 -0.1622770590483941 0.4905755888269671
-0.0003172278126014 -0.1457940729026891 0.4680870728341490
-0.0131294299367806 -0.1181698509569828 0.4500473068316151
-0.0545399013163241 -0.1310334935194232 0.4713165148537797
-0.0141868559787851 -0.1386232192811197 0.4679299251216586
-0.0252173676486279 -0.1781010705687912 0.5003735791168777
-0.0543223393528539 -0.1477670398218237 0.4851370343598101
0.0021099412179936 -0.1285078245287510 0.4544019377782675
-0.0057542277610197 -0.1617215305791499 0.4809658366243200
-0.0189496187542794 -0.1254045811667227 0.4595773546189343
-0.0071158448562035 -0.1405212866610278 0.4655670566388901
-0.0023568977176133 -0.1749759226245362 0.4905317796625138
-0.0407588100583016 -0.1555548960627571 0.4890575306187195
-0.0171304078703871 -0.1824388844490890 0.5004566752094536
0.0067240354741175 -0.1236985675109822 0.4479919504193313
0.0143664735530433 -0.1430576959629853 0.4612014027411817
-0.0310975467574506 -0.1862122667073666 0.5070602708112961
-0.0543417001771445 -0.1646163271103120 0.4974182976747931
-0.0314008192313753 -0.1689980914749484 0.4958021634661244
0.0066439070991337 -0.1524467065047422 0.4692685070755332
-0.0128141452726026 -0.1323699556750178 0.4629944694462874
-0.0041789349992122 -0.1846366913057885 0.4972945014552413
-0.0041975892240762 -0.1331894696900641 0.4592280118623910
0.0116421794635355 -0.1605429227354723 0.4748636439756386
-0.0583283341423897 -0.1355302922707206 0.4754911042665179
0.0038654168336007 -0.1790173887052907 0.4897952204201580
-0.0630272203297135 -0.1288363932621503 0.4726242890726517
0.0067860042438361 -0.1168062553834042 0.4432933468717782
-0.0374048652196924 -0.1908941945084504 0.5118866275351902
-0.0475651290356544 -0.1767261694043860 0.5036256323181618
-0.0272041132565826 -0.1282992363779994 0.4629009156821969
0.0075507568033159 -0.1848732607938360 0.4929220642030375
-0.0429238307016038 -0.1286235655148388 0.4678462637495414
-0.0248194815114728 -0.1659479843898053 0.4903896118578693
0.0127713960072892 -0.1285813108691242 0.4512654842431859
-0.2092518949230125 -0.2238081610820579 0.5494853483075882
-0.1601876092137739 -0.2257026954648327 0.5518354980006768
-0.1726418480684045 -0.2222354120781864 0.5543249891007037
-0.1916968561271710 -0.2234325328268427 0.5540112589552643
-0.1770637472804755 -0.1741243289955193 0.5296137939513674
-0.1610042968311136 -0.1835581379409267 0.5322734341933353
-0.1939957067018836 -0.2014999692629247 0.5444563388681265
-0.2043495081008092 -0.2142263902167068 0.5540140853529709
-0.1620045589795009 -0.2065245977859411 0.5431641098366411
-0.1687342119190605 -0.1999574627145146 0.5397020552857522
-0.1959945351600342 -0.2111932415178036 0.5481628768206421
-0.1752650277799565 -0.2075402638018297 0.5446143344999288
-0.2182087492554209 -0.2460656190623565 0.5621314995665011
-0.1681973376746802 -0.2104483444022132 0.5454970185037190
-0.2115161221258185 -0.2298652726873175 0.5587138194596067
-0.1711155933068076 -0.1681234627046222 0.5235760431703984
-0.1790631410181674 -0.1956333568630941 0.5407989802357073
-0.1855491584754128 -0.2071571455926919 0.5457511116575479
-0.2014866498637323 -0.2319938328002039 0.5592485739057064
-0.1915618956366779 -0.2310577298797578 0.5569001200512425
-0.1687497571064471 -0.1745512563691104 0.5263651324273314
-0.1520783915535931 -0.2105947518034182 0.5451126284156131
-0.1592768025528024 -0.1956472062118567 0.5365045515602067
-0.1994765158147551 -0.2234838319452186 0.5544617867497060
-0.1776694443090129 -0.1859475745621378 0.5337669027415355
-0.1681977616343362 -0.1810176303622946 0.5306033157884694
-0.2126239287069442 -0.2389616097465496 0.5624881909570817
-0.1845392865748229 -0.2005941087979399 0.5428498144116604
-0.2097376113689021 -0.2212697733017057 0.5562076526131104
-0.1808819279424037 -0.2253037494285375 0.5533219005546097
-0.1886931019644171 -0.1947689031245118 0.5404646173870092
-0.1871915781827535 -0.1863448247598090 0.5374304794489088
-0.1441256150064760 -0.2039028312732425 0.5407158841431314
-0.1666515807689074 -0.2177805853328329 0.5499813811051072
-0.1521781633926382 -0.2199372681029005 0.5491676612053595
-0.1508342112831210 -0.1939033188268469 0.5351569251336702
-0.1769981748536809 -0.2158788436359061 0.5499293753873046
-0.1598391143765426 -0.2140228895818272 0.5466484929294126
-0.1511732376880350 -0.2009671932952192 0.5393275575896196
-0.1683173182573280 -0.1903881279990728 0.5351642737677081
-0.1883393782914284 -0.2165160549988728 0.5512221696983314
-0.1248175030330781 -0.1168670229340974 0.4919071047865750
-0.1492974988500095 -0.1443794608505053 0.5049189919087298
-0.1343146232871147 -0.1430455424528466 0.5007613608822317
-0.1451264424344046 -0.1890280654226275 0.5308257532879836
-0.1668721811099123 -0.1608111478778345 0.5170346283181030
-0.1373415539110632 -0.1315009797001049 0.4956874117192340
-0.1563589708803311 -0.1588849578407451 0.5152715214286874
-0.1566500898441172 -0.1470670824297691 0.5115904210555322
-0.1486372523457335 -0.1318812715115361 0.4997896453506816
-0.1482176736061797 -0.1827742365369843 0.5277444145081819
-0.1432102861091739 -0.1694330740820035 0.5205478406674819
-0.1515136772918023 -0.1533678295173430 0.5109411975023121
-0.1477586666186179 -0.1747510826869713 0.5249010584152810
-0.1537396068056830 -0.1871986795069913 0.5313458104660093
-0.1415537344132999 -0.1399691498690316 0.5006432174580927
-0.1374615344937109 -0.1610976032854045 0.5136144044532726
-0.1470414682005527 -0.1639724737127347 0.5171397703127902
-0.1603904032492268 -0.1747212641911661 0.5259253449441750
-0.1540827314872717 -0.1784505546452198 0.5269869399227968
-0.1633582621611060 -0.1664982840232921 0.5209254474010918
-0.1557587853273216 -0.1674893603791328 0.5206648535325371
-0.1443368882350489 -0.1549260225730251 0.5098708406907997
-0.1634771121846712 -0.1514441832381895 0.5148893924587468
-0.1409190668082692 -0.1479264486524794 0.5055651064244725
-0.1873396814225825 -0.3104626883705744 0.5928391800902891
-0.2089392953366558 -0.3330933721680376 0.5988684516781381
-0.2022547234405174 -0.3273087253017001 0.5964035502381592
-0.1988272922615351 -0.3367128570711875 0.6000871943692503
-0.1952328209780891 -0.3086605771928074 0.5898313276508605
-0.2150578810920353 -0.3489231778037333 0.6028372793378314
-0.1811493051654538 -0.3259570005984895 0.5968065945511289
-0.1962580967461803 -0.3192478390423031 0.5942896873933480
-0.2097954112020034 -0.3422476503802562 0.5998565603163868
-0.1850883143293418 -0.3184418917362488 0.5937608683824307
-0.1909345766656845 -0.3301040326335877 0.5972070951061629
-0.1428923163671746 -0.2288603469827143 0.5454916483480764
-0.1398639725443727 -0.3160873611267149 0.5921283410670639
-0.1400710061763856 -0.2274814888615197 0.5530435003805036
-0.1195355309988702 -0.2843512957973583 0.5794369674448444
-0.1392955839655632 -0.2520666266731389 0.5662017949038639
-0.1178628688360682 -0.2466653806557099 0.5607451514913839
-0.1111655781502499 -0.2765008348472224 0.5763901107170639
-0.1273621088883848 -0.2788600290129722 0.5771419325070358
-0.1314804529867605 -0.2689828995872751 0.5726948783553755
-0.1036036924059640 -0.2799425393346234 0.5754856634509324
-0.1257020241953776 -0.2349843028937364 0.5552333933236244
-0.1365915692796007 -0.2758550029712504 0.5754169819866606
-0.1415178391624253 -0.2436415590692388 0.5609885043339274
-0.1413642244470683 -0.2874787048597787 0.5814473841335923
-0.1706020368435073 -0.3141798253144895 0.5930455071228753
-0.1602760754619924 -0.2648659686877528 0.5740642680442527
-0.0965861708599810 -0.3001303675942195 0.5815138044796988
-0.0988446039474884 -0.2865532009307326 0.5768355509956338
-0.1528837735801061 -0.3033687127666262 0.5887539048450814
-0.1209662535179819 -0.2636523135125126 0.5693410748366516
-0.1253519748394076 -0.2493306736930911 0.5633496769780719
-0.1136245441550449 -0.2976222222693286 0.5845307013917888
-0.1262068188257872 -0.2424712890987958 0.5596284417574816
-0.1089342784807265 -0.2845077369104220 0.5778174415589278
-0.1202791562354926 -0.2777438845586118 0.5764684019335384
-0.1235015322608568 -0.2712659223348304 0.5731403186339453
-0.1732319999095553 -0.2804846424147609 0.5808207717620256
-0.1520815005910705 -0.2830740466737183 0.5812636682826594
-0.1632437930539863 -0.2566427058801082 0.5690643705011695
-0.1270938837460228 -0.3009196391538045 0.5861016132371508
-0.1766892495843429 -0.2967437778620984 0.5876646111689343
-0.1360193650638872 -0.2822938195867946 0.5791498054378477
-0.1225377306428854 -0.2557557822797580 0.5659024793867280
-0.0860271729875519 -0.2987407691617397 0.5781998531686390
-0.1327856834476965 -0.2479160616409074 0.5633861375084879
-0.1556481318571058 -0.2502330011609427 0.5661613774166576
-0.1584724097654867 -0.3240910128325519 0.5947608478910478
-0.1147600494336959 -0.3045529734057171 0.5866454121559124
-0.1717765464105102 -0.3051524523592999 0.5914621591276039
-0.1500551147552799 -0.2671351420865455 0.5733294046405208
-0.1501271878967997 -0.3122718655426081 0.5911684964058819
-0.1563745160677177 -0.2748312817218978 0.5764664234551439
-0.1451330844690153 -0.2338800293097440 0.5509683591842732
-0.1775114486772106 -0.3170662839724169 0.5956604902810780
-0.1087300712464202 -0.2698189480289053 0.5707582306467714
-0.0921460413827021 -0.2927575678565092 0.5775229309178936
-0.1160535503441493 -0.2720608466898288 0.5731380575157800
-0.1343714338810185 -0.2406392181053382 0.5599127773667723
-0.1570767345779376 -0.2941942258108050 0.5857890136507942
-0.1603434850472963 -0.3139989358612632 0.5929542144769502
-0.1629053319286136 -0.2824139414893276 0.5813787026693205
-0.1559101389245133 -0.2379694028316263 0.5581892400452504
-0.1695675752828694 -0.2897727505583900 0.5860439547239354
-0.1329688340190881 -0.2297421830671925 0.5534550238865934
-0.1688671939311588 -0.2982388009290367 0.5889090740791771
-0.1432873054466804 -0.2594367413330279 0.5699566642571624
-0.1652430454717929 -0.3209840951535050 0.5939007750689109
-0.1667010427287740 -0.2729018413274457 0.5759084925478485
-0.1408469936667493 -0.3072011667369731 0.5892750925821897
-0.1299608402597743 -0.2883599756647155 0.5813430900582165
-0.1444257784429234 -0.2976007416467580 0.5858500638412580
-0.1460279219829441 -0.2767328820989393 0.5765184291729464
-0.1105181917555392 -0.2914411731246319 0.5801678738917869
-0.1125236622483005 -0.2619084261275028 0.5679940136896571
-0.1059791383585272 -0.2991500315496642 0.5827189804618190
-0.1724526207419435 -0.3258727739468310 0.5953784157899532
-0.1505642903021349 -0.2293798388811985 0.5543006820804264
-0.1848291336596409 -0.2988803932084487 0.5884947241753806
-0.1329207852580749 -0.2613105016926587 0.5695033100650140
-0.1489083038858023 -0.2403685905249254 0.5611286936601778
-0.1798330517534618 -0.3053750311786995 0.5913841505509001
-0.1332155785388796 -0.3051503325610199 0.5901979114334145
-0.1408534943814747 -0.2679748648451944 0.5733946944275448
-0.1199522833407173 -0.2939209131525709 0.5839750316026592
-0.1490048253674847 -0.2899472806167763 0.5843102423706692
-0.1016023201898774 -0.2936634283214941 0.5791300206539011
-0.1643706778196320 -0.3044013371687548 0.5897651899445246
-0.1313580699660620 -0.3124574185520503 0.5903790835264114
-0.1525769681090481 -0.2565145287441112 0.5697483587461816
-0.1472542959478643 -0.2497559052280583 0.5652512773551134
-0.1318907046138823 -0.2547200488401521 0.5660960876296343
-0.1352664127148327 -0.2968941422200927 0.5842206455633679
-0.1404245885294889 -0.2351646270674214 0.5571793681446605
-0.1120243790934188 -0.2538297335625539 0.5641393724973129
-0.2125959473696483 -0.3948418241853436 0.6113379530803846
-0.2324433360254771 -0.3772961125019341 0.6097348203011661
-0.1932732794480611 -0.3854806536609974 0.6100779449827552
-0.1754484609911188 -0.4263661923264713 0.6222574579802984
-0.1688163187724390 -0.3674165806381862 0.6067049219596261
-0.2097728000203501 -0.3656343955642512 0.6067020955619195
-0.1413640831271830 -0.3857521291607222 0.6118676200106129
-0.1806251497107535 -0.4335227726396220 0.6226757648408842
-0.1521914474618596 -0.3784844714176996 0.6049802540790211
-0.2287150348106208 -0.3594807624773091 0.6083199256092121
-0.1904723193207601 -0.3546993454769508 0.6032420194894252
-0.1974618595294472 -0.4273328203421493 0.6190458222662196
-0.1567514162019009 -0.3952274861524175 0.6135318029802949
-0.2066059627099218 -0.3543791146167862 0.6079524939073463
-0.1577365571225576 -0.4057590679670920 0.6169785949835678
-0.2015233930339189 -0.4057736239152813 0.6132095936417356
-0.1318255561467438 -0.3989458949753005 0.6140626004696058
-0.1702652715567587 -0.3953771439109852 0.6107020135963860
-0.2391772285615967 -0.3751435280085411 0.6111095801456859
-0.2004794630409637 -0.3549377521235077 0.6005462013568120
-0.1373504570638392 -0.4269863039833127 0.6211947324425939
-0.1857984467531403 -0.3490136225303465 0.5996756708631604
-0.2325041035761703 -0.3681751857826540 0.6097246452694226
-0.2171587425073963 -0.4275835218187301 0.6131720025522369
-0.1724887986325888 -0.3341223222531475 0.5946709684439765
-0.1211920826947441 -0.4178731498577259 0.6182716719343652
-0.2004699946086464 -0.3839503006227258 0.6116542269837600
-0.1845664199928068 -0.4454255813016830 0.6259300791603341
-0.1900834069963236 -0.4202180707150572 0.6184584968227754
-0.2152619470064562 -0.3980336751154758 0.6176600394706437
-0.1719537615467179 -0.4210587827129034 0.6148144222595776
-0.1622384433897271 -0.3863961238781848 0.6135442391302042
-0.2008306429560163 -0.3642226099097741 0.6073880622853260
-0.1799747955984509 -0.3349845148735644 0.5983899425464004
-0.1791518899061566 -0.3793073771099940 0.6086907489883261
-0.2024001416025251 -0.4401728624837391 0.6209397913694531
-0.1747425681638802 -0.4488258790626815 0.6233399683019495
-0.1651093568602678 -0.3790440981636185 0.6092622466046129
-0.2233734257848023 -0.3687076791105889 0.6080259802477195
-0.2356295341601960 -0.3843813262729916 0.6117596516182184
-0.1749154023836425 -0.3950341605492819 0.6176470380411931
-0.1707543796798963 -0.3518096364616607 0.6026586510027704
-0.1511435605121150 -0.4123035918568653 0.6163734632345712
-0.1441941551508626 -0.4303815142284391 0.6217532286294301
-0.2203040991952539 -0.4170133596753597 0.6181976203144507
-0.1780413982472095 -0.3465950740127567 0.6013856414756903
-0.2265313599424545 -0.3871625016163459 0.6132378576188021
-0.1714231053772923 -0.3873319441588602 0.6118591408174929
-0.2126541711624055 -0.4225374126731431 0.6174364714120469
-0.1752661583390391 -0.4403270424786375 0.6235310327869198
-0.1651096395000385 -0.3572313738624630 0.6046167793339451
-0.1392790495389792 -0.4193719885615682 0.6192501708204112
-0.2125751733465043 -0.4384398567299000 0.6201229624322281
-0.2075481423854373 -0.3898560586307938 0.6090180458427574
-0.2057427808503076 -0.3994398079745395 0.6128817315077628
-0.1827425455526986 -0.3593192338483734 0.6048188667699719
-0.1667943138530937 -0.4247356434894986 0.6191348537939795
-0.2121342553042652 -0.3758115471065104 0.6080822255620820
-0.2350316097253519 -0.3913842918707853 0.6144469905577117
-0.1920053574368530 -0.3619674271796293 0.6078614839011918
-0.1954310927772114 -0.4490189220260464 0.6242865288939102
-0.1654635044929125 -0.4119449219878900 0.6196345609085171
-0.2013713328373005 -0.3455377186306949 0.6033118315127792
-0.1873775551518518 -0.3817560267631596 0.6077224251340241
-0.1587393630288809 -0.4187132965760309 0.6192761736793124
-0.1485439812214136 -0.4204187449522301 0.6195870774270452
-0.1258983175161052 -0.4047879177150833 0.6160088579304125
-0.1465948973629003 -0.3809749517569239 0.6101446479686324
-0.1721137356569149 -0.3742502450133510 0.6079773662071648
-0.1542373354418261 -0.3692332477641425 0.6071837137311344
-0.1697500192548344 -0.3446548933070193 0.6002971957188552
-0.1951052091216333 -0.3921397879777758 0.6076088039462163
-0.2083776901123423 -0.3475529401955441 0.6052091922932612
-0.2045436816232567 -0.4124355846297664 0.6150100089808785
-0.1780534104374628 -0.4050504900620321 0.6164656037998089
-0.1567525467609836 -0.3768192992088203 0.6104775976184771
-0.1730782438743129 -0.3595365838320156 0.6046823517607396
-0.1500986412799624 -0.4353171112236957 0.6235338591846264
-0.1739995082067990 -0.4118077003792316 0.6170178819116904
-0.2065786879720526 -0.4303789704705031 0.6180093822271870
-0.1892783076095812 -0.3418860127936890 0.5996745403040779
-0.1886663925060892 -0.4297211264042778 0.6210412590471222
-0.1691198738861343 -0.4048502397845152 0.6165769638694513
-0.1427810976174174 -0.4106706405818419 0.6170484070069229
-0.1935037721810392 -0.3475689093425867 0.6030046020820656
-0.1834018028177772 -0.4246471772412801 0.6207662505502641
-0.2306663797872994 -0.3973228360922506 0.6150563619032677
-0.1842179251555755 -0.4119331924374074 0.6160978894581723
-0.1530599994771164 -0.3890662217916674 0.6129998749319013
-0.2033465608746005 -0.3760065685482700 0.6079123590599117
-0.1962185271782871 -0.4006442773572331 0.6119235826852043
-0.2111108166946833 -0.4064553510421279 0.6145696562181807
-0.2314543794679164 -0.4085871615123769 0.6166934114549657
-0.1401601790240307 -0.4027445734930528 0.6150476000703771
-0.1793675440511747 -0.4188233847667053 0.6187060892618790
-0.1334096107414419 -0.4058793311895104 0.6164130328024650
-0.1548177362108888 -0.4286510522325360 0.6211726865404824
-0.1631409121774638 -0.3992115763597267 0.6133138877171113
-0.2181568848575036 -0.3614955600825023 0.6065963882876904
-0.2189898242616566 -0.3822209691859054 0.6069513838396470
-0.1511777599243656 -0.4003421354423911 0.6137262591425131
-0.1948785320255591 -0.3740334603092501 0.6098798145035184
-0.1872715652378519 -0.4032288767400892 0.6136604040759479
-0.2202745633392193 -0.4249782897326154 0.6197936870994015
-0.1921510582386314 -0.4101866199745763 0.6141016047579577
-0.1924611140670520 -0.4378241259895039 0.6229863859488463
-0.1609935565198282 -0.3655067837077954 0.6063578403212487
-0.2449545267938970 -0.3855111787562293 0.6136134858740173
-0.2122750099100570 -0.4154181408097203 0.6122548364964260
-0.2005854529549634 -0.4577493819021513 0.6269049037293609
-0.2421780150067586 -0.3943866328346858 0.6155227175248668
-0.1311839638673317 -0.4132945268928206 0.6183804882460716
-0.1863042306227473 -0.3943267132033046 0.6134249651469825
-0.2180692665285971 -0.3895888227276290 0.6086155668093289
-0.1762243071615972 -0.3665662588881373 0.6056958979783482
-0.1244459730545375 -0.4236414036173649 0.6152872785959019
-0.2200987614018650 -0.4073306864118808 0.6154350991959603
-0.2243810365672269 -0.3776652400424240 0.6092724216363569
-0.1672285898607222 -0.4367274836793195 0.6225231393647245
-0.1810218346288834 -0.3876232044425317 0.6099386035758169
-0.1993103236296034 -0.4196078514501891 0.6150786904451504
-0.1311667228413211 -0.4234807229077411 0.6226480661433589
-0.2223132440050338 -0.3532754063123351 0.6058663297600598
-0.2222035797740154 -0.3955513913296008 0.6132039408463222
-0.1446817087552615 -0.3926132095936415 0.6136457068078733
-0.1354367031766590 -0.3915942932203902 0.6138144427509610
-0.2120392883413214 -0.3834921415544761 0.6119823717575034
-0.1840472107340932 -0.3684760558185280 0.6060429796167262
-0.1641083881124539 -0.3939188640142335 0.6191523774597607
-0.1626605658872169 -0.4305885478604520 0.6220251280888108
-0.1626344217084302 -0.3497007198128357 0.6023341805460457
-0.2147009070616840 -0.4300930803424743 0.6199884259013910
-0.1546025060255266 -0.3455093133337429 0.6018666943653640
-0.1071455926920661 -0.3695700130508912 0.6047157032536782
-0.0728442181442014 -0.3564649961243019 0.5895260766985412
-0.1104981243318219 -0.3124331115317731 0.5886682649945701
-0.1395816154134773 -0.3501361263795468 0.6042405857991885
-0.0696877678453452 -0.3406214824597289 0.5902654623386037
-0.1337852389966571 -0.3221261011468813 0.5938159831377111
-0.1371845475184581 -0.3577200580259446 0.6054437833029140
-0.0870070850724512 -0.3434923959302697 0.5932303535328910
-0.1614788490060620 -0.3427424112988072 0.5997141098719710
-0.0827661459735492 -0.3548049114312946 0.5973498281903492
-0.1432532473543151 -0.3344568264217308 0.5996214040271926
-0.1586144362502464 -0.3318876309063760 0.5971214552556510
-0.0793113693967549 -0.3151313321024369 0.5831545283484155
-0.1132990844591229 -0.4120575539365005 0.6110310062894413
-0.0635909453523070 -0.3458240327183796 0.5843814675928770
-0.1655068896977097 -0.3365493499638572 0.5981160646086250
-0.1563097915602351 -0.3552052706664431 0.6017756843592090
-0.1373891787124204 -0.3421851869909390 0.6019698578816571
-0.0965536672863544 -0.3617336840892885 0.6009944680330884
-0.1241096317274448 -0.3789679267454240 0.6093688017981540
-0.1104339651038808 -0.3625834405597961 0.6034443895652221
-0.0745148311686660 -0.3319006323358267 0.5882666338804531
-0.1175179069959703 -0.3671041223717149 0.6057091820475695
-0.1064298074728542 -0.3185707754716726 0.5892553077982431
-0.1315451774942430 -0.3499411049377872 0.6048236716460726
-0.1212707978708746 -0.3121080757955071 0.5910523314601380
-0.1656821263555227 -0.3289796916258780 0.5962384886120902
-0.1299197161731423 -0.3613605995920092 0.6045164422153586
-0.1465460006825751 -0.3452867345143434 0.6019447029420678
-0.1218369253315188 -0.3919256883514962 0.6140815373342404
-0.1292006805965678 -0.3858121901119887 0.6115849802399468
-0.1515081658162743 -0.3289406873375261 0.5970567307481685
-0.0955098786132845 -0.3453193794078553 0.5960943423290499
-0.1290233241404748 -0.3739639309256662 0.6071627983881052
-0.1274926884624326 -0.3298794753357935 0.5964343579731618
-0.1147613213126639 -0.3205663535724605 0.5913547560147507
-0.1092896979923391 -0.3888630037965585 0.6096681173152899
-0.0636788463209841 -0.3303394715625526 0.5854806536609974
-0.0900793793795916 -0.3188028227233894 0.5865894494813205
-0.1001831859013630 -0.3946308335965414 0.6089513428568802
-0.1055782138438373 -0.3272328365232762 0.5918612464837844
-0.1245003812103907 -0.3210515047388088 0.5929731513415848
-0.1032026265713888 -0.3080254856281207 0.5846279294728979
-0.0987148722927527 -0.3364189117096948 0.5939154723369856
-0.1463519684800128 -0.3688419330016553 0.6080256976079488
-0.1173709343152239 -0.3851170375960354 0.6090451792607413
-0.1495610604361556 -0.3517473143922288 0.6075658427010751
-0.0836262894556288 -0.3347451189878102 0.5910506356215141
-0.1038582095194488 -0.3799611228995446 0.6075779962112137
-0.1057988141848422 -0.3409397348414989 0.5961805474591036
-0.0833903559070652 -0.3724554824696213 0.6019447029420678
-0.0990040127781441 -0.3177918202637168 0.5870529787052129
-0.0919655052291891 -0.3345474124682293 0.5909844979151782
-0.1142029664457131 -0.3368287393771606 0.5965802000948255
-0.1420342220234323 -0.3256123213981622 0.5965991369594601
-0.1233164032110704 -0.3380717890885501 0.5966587739510706
-0.1064224588388169 -0.4022157544821365 0.6100655088328459
-0.1173891645804319 -0.3439138118283329 0.5986050314118773
-0.0719363085408793 -0.3224283843816087 0.5845708362392232
-0.0970273715419908 -0.3275440229107796 0.5901518411507959
-0.0933618163562222 -0.3552403179980057 0.5984292294745225
-0.0906340599295238 -0.3099413593135808 0.5840058393376618
-0.1258314732103426 -0.3674705648343835 0.6045975598295392
-0.1359566190347994 -0.3694770245663420 0.6076413075198429
-0.1522386483035608 -0.3377269685683374 0.5988317085079515
-0.1153089358683295 -0.3517245618906902 0.6002912602836712
-0.0787158473999615 -0.3415520739046470 0.5921421904158265
-0.0825307777045270 -0.3068502694616911 0.5809411763043294
-0.1338601385358836 -0.3354373037861715 0.5984165106848430
-0.1033418266584419 -0.3476470592391759 0.6002273836955007
-0.1270943077056788 -0.3479499077534446 0.5969832444077953
-0.0921789689159846 -0.3756649983854201 0.6037055487133176
-0.1222200435406567 -0.3488113937744348 0.6029701200300444
-0.1028671331636082 -0.3574126872753453 0.6004727150164388
-0.0774213572503108 -0.3630222388037552 0.5938103303422978
-0.1491443080943084 -0.3211582012522353 0.5940217448907560
-0.1183254088207633 -0.4086200890456595 0.6183847278426317
-0.0796369704125623 -0.3249801975510675 0.5889506221254645
-0.1444967210253606 -0.3611456520464177 0.6067433609684367
-0.0590942879208948 -0.3385846389524237 0.5864800678900727
-0.1237470049016803 -0.3574646929931479 0.6026891760980023
-0.0962939213371122 -0.3857976341637994 0.6050186930878322
-0.1359594454325060 -0.3796909192787878 0.6124142453270811
-0.1126474584678523 -0.3739667573233729 0.6078117393015545
-0.1156042944286755 -0.4005555284692439 0.6138557081574783
-0.0990690199253973 -0.3693195942140810 0.6042877866408897
-0.1181879045723343 -0.3287771802301957 0.5950858836273138
-0.0880195007309772 -0.3266409888435014 0.5887810382630654
-0.0739853762182658 -0.3494019695752417 0.5934231138564853
-0.1528358661389782 -0.3609478042069514 0.6066775059018715
-0.0882576247377633 -0.3637900297407696 0.6009565943038192
-0.0826871481576481 -0.2311880268140348 0.5472437322864354
-0.0547837487784663 -0.2106697926625300 0.5281435018643624
-0.0583896669726243 -0.2367450073451008 0.5438399015283037
-0.0499082833944189 -0.2299396069470027 0.5371845828484293
-0.0962026286911871 -0.2751948977868597 0.5727378396005167
-0.0165136172308510 -0.2416823001789814 0.5368499373599607
-0.0069667523771772 -0.2452538776410035 0.5337312901304310
-0.0483669074050914 -0.2837253900252183 0.5645175445104642
-0.0535968030615540 -0.2545240381591952 0.5521975595469000
-0.0298121010804612 -0.2863940747398475 0.5600283770329747
-0.1013547277507739 -0.2645074401386628 0.5690561739478203
-0.0750967864564675 -0.2325972687105760 0.5507688155061830
-0.0832148366094816 -0.2699361022138465 0.5659228294502160
-0.0688585027582109 -0.2838579480776607 0.5680149290326864
-0.0817114050093660 -0.2050458265058162 0.5314469955039077
-0.0393479429830791 -0.2335561241325607 0.5381670386912646
-0.0631476955319599 -0.2771797355763623 0.5647979231629650
-0.1078653348680673 -0.2308164968354943 0.5510904595652004
-0.0490434763561233 -0.2616132088870421 0.5547828655291828
-0.1109735244260823 -0.2438069033350784 0.5586358108829028
-0.0857108990841765 -0.2598794965337763 0.5612960164044121
-0.0315220010330484 -0.2718823596746531 0.5569467556134023
-0.0870665100842338 -0.2763189561547987 0.5704993326168414
-0.0128152051717426 -0.2629318647370847 0.5447197591343873
-0.0303149172324762 -0.2660522078052384 0.5522351506363986
-0.0691148570302050 -0.2091275687538905 0.5324848487417936
-0.1007775773390738 -0.2336965960985817 0.5514677836590401
-0.0236437000655018 -0.2372560200504651 0.5347781878409782
-0.0968894433339057 -0.2198572810478019 0.5432384440963257
-0.1138160325996712 -0.2268049905704304 0.5485348307588381
-0.0561856420409701 -0.2804275491810864 0.5643883781352698
-0.1040405121715285 -0.2188632369743693 0.5432633163961449
-0.0882472377261913 -0.2498782882487567 0.5576804884580520
-0.0689124869544081 -0.2306782859876385 0.5435010164432751
-0.0196061909415367 -0.2304220730355297 0.5294719087864931
-0.0482058733957544 -0.2086295574779769 0.5259767853824362
-0.0963627441212695 -0.2551902200986552 0.5634163799639491
-0.0258347235677054 -0.2796433651373733 0.5562390256276544
-0.0406825679801644 -0.2675828434832806 0.5542797667373977
-0.1004241363058558 -0.2260134578926801 0.5473319158948833
-0.0866544919585453 -0.2130963964135837 0.5366503936818704
-0.0437411542584275 -0.2464714897730330 0.5449034749853202
-0.0897457937902630 -0.2068424262080552 0.5335690549020686
-0.0968794096220471 -0.2446717810333167 0.5571157741962607
-0.0587190836253356 -0.2602124461836209 0.5559999123816709
-0.0169034481345422 -0.2568218994947105 0.5446386415202061
-0.0236220074631032 -0.2716648683711256 0.5534626551604014
-0.0706878886738472 -0.2374708262761714 0.5471216319055077
-0.0318141798959745 -0.2348318187374621 0.5356023654122405
-0.0398600862475261 -0.2270340701045553 0.5329172875909127
-0.0223257508148859 -0.2519038261652352 0.5441852873280577
-0.0812880106329082 -0.2423206421010308 0.5530378475850903
-0.0430809077541515 -0.2549929375387303 0.5487795968002350
-0.0412860745504792 -0.2103314728570427 0.5238722496500570
-0.0365011245529876 -0.2461433449992897 0.5434309217801498
-0.0263194507743977 -0.2164264581915716 0.5228620951096958
-0.0925505695544679 -0.2370472905798282 0.5523722309251716
-0.0633306341235235 -0.2674166512981289 0.5607550438833572
-0.0457554572440220 -0.2391693499779892 0.5411604765023892
-0.0318814481613930 -0.2209062985566292 0.5274750588067371
-0.0601085407379301 -0.2444641821217624 0.5491894244677008
-0.0689726892255600 -0.2938200107544430 0.5720351971306409
-0.0432533180142578 -0.2792482347379821 0.5601405850219296
-0.0558368645639681 -0.2897675217226326 0.5682074067165100
-0.0985465603093210 -0.2122730667616334 0.5380014117856543
-0.0709608480323679 -0.2744736010921199 0.5641286321860277
-0.0441059715424147 -0.2033143752707157 0.5218598544829139
-0.0621262354007726 -0.2095347113435350 0.5294382746537838
-0.0282393520765898 -0.2286205271373041 0.5304978911540109
-0.0771928429957273 -0.2540282880014469 0.5568755303911944
-0.1232090000982173 -0.2258246545258751 0.5497400067409584
-0.0507242644123319 -0.2466559122233926 0.5474096418318164
-0.0557099593069391 -0.2237297285456981 0.5360251945091564
-0.0489598149840062 -0.2184534093069035 0.5315029581784990
-0.0633249813281102 -0.2890279947626848 0.5692206702943480
-0.0186801923928920 -0.2796276786301014 0.5529683182015064
-0.0706819532386632 -0.2464731856116570 0.5524691763665102
-0.1065965649375473 -0.2383201587870230 0.5550468510749849
-0.1057427101903650 -0.2485842220587620 0.5603590655646545
-0.1100792521916948 -0.2127693821989231 0.5405643892260544
-0.0316363994802255 -0.2524139909512875 0.5460736036358779
-0.0331548816481291 -0.2590626675965513 0.5507278327394364
-0.0783713095195195 -0.2922479683499983 0.5737802150747333
-0.0391051554200769 -0.2844817340515208 0.5630659066483231
-0.0143224524087622 -0.2497445996372316 0.5392879880217264
-0.0887138759875611 -0.2430993146692159 0.5552401766781204
-0.0198759706026375 -0.2656218887543992 0.5475936403225201
-0.0784888170041739 -0.2115239300494829 0.5347747961637302
-0.1039599598368886 -0.2558004393635233 0.5663826843570903
-0.0896150728963299 -0.2188820325191186 0.5412947303934555
-0.1162810753595355 -0.2381306488207913 0.5556887259941675
-0.0093262291826977 -0.2562395202472530 0.5421776970370165
-0.0632982012098396 -0.2029022864850845 0.5262000708012619
-0.0521305385912810 -0.2711713793315426 0.5602313123883129
-0.0350051829067946 -0.2791666931641449 0.5589486931090303
-0.0269014060621992 -0.2432404932346636 0.5393996307311395
-0.0718489728517435 -0.2025912414174665 0.5279094761342509
-0.0739342890797179 -0.2236194990351383 0.5416570745794496
-0.1211899628964641 -0.2161034009337003 0.5455278262387216
-0.0626839543282395 -0.2521331883391308 0.5539999533644376
-0.0679407714228581 -0.2594007047622680 0.5564402651443687
-0.0910711623348589 -0.2270493326521713 0.5471380250122063
-0.0427331195163469 -0.1970611116646138 0.5169238335280013
-0.1192266057295321 -0.2314814068959862 0.5528891790657199
-0.0343440884832067 -0.2136071264791774 0.5239683471720830
-0.0626739206163808 -0.2272909896560908 0.5396169807147817
-0.0743938613468209 -0.2644777629627429 0.5609851126566788
-0.1317243711088453 -0.2214616857059880 0.5493872723071671
-0.0920673262065716 -0.2658277918273295 0.5665587689342148
-0.0236710454633138 -0.2232746785149256 0.5256393134962604
-0.1135025850940025 -0.2191772497595793 0.5454102480941245
-0.0809386678763649 -0.2188252219252147 0.5403721941820014
-0.0115391572671279 -0.2347877269332382 0.5300603647890199
-0.0405001946681421 -0.2184850649612181 0.5285358058660470
-0.0856984629342672 -0.2870886619762594 0.5735184906470965
-0.0715045762911869 -0.2163457645370465 0.5365656017506706
-0.0791619236180152 -0.2800978498886044 0.5680660868311770
-0.0514685255884384 -0.2022071339691313 0.5236597045425155
-0.0254952732031354 -0.2599710718194721 0.5489503112217173
-0.0355150650530763 -0.2035698816233978 0.5191391640504821
-0.0930456131127896 -0.2819573369398166 0.5737621261294107
-0.0626309593712396 -0.2170218388684797 0.5338330404478708
-0.0175477961517183 -0.2038238334573413 0.5124731050593224
-0.0057472324266957 -0.2245938996445096 0.5232303747308737
-0.0099010478162899 -0.2187685526511962 0.5208457429857635
-0.0284699861294533 -0.1964931470454603 0.5119341110166622
0.0033052248081405 -0.2192209176041472 0.5160117549880618
0.0003743210462758 -0.1917258620336354 0.4998800900772947
-0.0082712762386865 -0.2123717080415959 0.5169436183119479
0.0016353890430453 -0.2256734422485688 0.5209248821215505
0.0068536258089680 -0.1956238884307768 0.5001774271160355
-0.0062493419792840 -0.1932296469334643 0.5035979336206365
-0.0277195068783922 -0.2086985215820194 0.5186592417198911
-0.0136960520170235 -0.1974409795163890 0.5078968845324683
-0.0004825720784411 -0.2119022433825195 0.5127074134292046
-0.0249102795377992 -0.2027165921557569 0.5142735203984654
-0.0177755331469325 -0.2111395399613771 0.5173961245847843
-0.0181290448400931 -0.2188225368473934 0.5215319923489412
-0.0027202311428045 -0.2361386037171367 0.5283046065336421
0.0012915577620300 -0.2001035874759489 0.5047901081733061
0.0058392316720474 -0.2066011931637917 0.5079155387573316
-0.0136214351175676 -0.2253755399302867 0.5256687080324102
-0.0060975644224363 -0.2018368758695587 0.5092269872932224
-0.0565338542384307 -0.3357329449862882 0.5788660351080990
-0.0455166972977519 -0.3163225174159091 0.5755416261255244
-0.0500496739396946 -0.3310183722916925 0.5770958622244172
-0.0753177400971857 -0.3009520014075459 0.5762177004569576
-0.0526561072448346 -0.3249229629975076 0.5803739182846025
-0.0482797836957836 -0.3236342669631556 0.5740153713639274
-0.0515862450529208 -0.2964641058090243 0.5713102261188824
-0.0407054618015883 -0.2988439326780328 0.5685638154673199
-0.0661490472566631 -0.3082381720555470 0.5766899915137407
-0.0620162178700409 -0.3174957551039441 0.5811712450776515
-0.0454646915799493 -0.2922332710819236 0.5672139279226187
-0.0597261997881615 -0.2986005798354893 0.5721400564855580
-0.0292686554614130 -0.2940719841099919 0.5636922363801192
-0.0464130893304194 -0.3037193274021375 0.5728955525925484
-0.0557823150882296 -0.3101122150549485 0.5762366373215922
-0.0528312732427049 -0.3173531633396430 0.5784963422880677
-0.0353907035539832 -0.3109113790065068 0.5709066165263712
-0.0331714867346557 -0.3001199099227049 0.5659994248280665
-0.0670439554305346 -0.3014343261761875 0.5739800413925947
-0.0364165446016158 -0.2912748396195949 0.5648318399354449
-0.0712913952441620 -0.3139544200973833 0.5809977042584625
-0.2216234616447232 -0.2933010841355001 0.5855634671138026
-0.2378175899448075 -0.2980553677178744 0.5846607156862951
-0.2037291138041971 -0.2866553752078284 0.5815584615634641
-0.2018605822803235 -0.2943525040823780 0.5850202334745823
-0.2345229994580383 -0.2938181735959337 0.5779129738014128
-0.2461859882746891 -0.3461268812326483 0.5954072450465612
-0.2446000965214817 -0.3400017947625435 0.6001228069803543
-0.2482421926062849 -0.3322875661818686 0.5971002572728511
-0.2356108799353320 -0.2886915121157068 0.5867850362026215
-0.2041163302900096 -0.3041899226202965 0.5876928751460009
-0.2181454379467916 -0.3282576883317114 0.5977528725033191
-0.2284410155529600 -0.2846516005536911 0.5819581141991860
-0.2236987441608390 -0.3449283472851388 0.6016976757825057
-0.2234312256179035 -0.3367640148696781 0.6001242201792075
-0.2144746539252658 -0.3137131870531198 0.5918386353021311
-0.2236608704315697 -0.3088496631993831 0.5902174135775904
-0.2174295114076944 -0.2990710337337630 0.5869373790390104
-0.2128414200104718 -0.2718849034325891 0.5769276915608709
-0.2160454244507426 -0.3360404570567729 0.5989331761856207
-0.2396370834684705 -0.3311304389607616 0.5987746152742770
-0.2367292855078578 -0.3402300263773563 0.6009305914449179
-0.2343948223220412 -0.3244823275950391 0.5962992561627833
-0.2296778471893948 -0.3505665867502712 0.6049610345746164
-0.2262299246270391 -0.3263146812282674 0.5960149205534933
-0.2268877686932645 -0.2781489073499763 0.5724721582160907
-0.2396619557682891 -0.2851226197315061 0.5802176184914242
-0.2429029860185171 -0.3475304703337761 0.6043488368313535
-0.2439628851585149 -0.3159323332125046 0.5956265735085980
-0.2296039368893656 -0.3406599214685395 0.6019514862965638
-0.2245015824294160 -0.2585385121418510 0.5728797247653912
-0.2118219383576792 -0.2943344151370553 0.5851338546623897
-0.2202963266015606 -0.2865116528844446 0.5821791384998468
-0.2544539081660989 -0.3680489871250516 0.6017502467798496
-0.2369398521370040 -0.3080749475879873 0.5818608861180768
-0.2146096144157588 -0.3060881313200900 0.5889500568459237
-0.2203001422384646 -0.2791104478497824 0.5795370219236602
-0.2329258021140042 -0.3098962782701596 0.5905543201842244
-0.2447592227123666 -0.3242101454958877 0.5994586035192889
-0.2424210852095315 -0.3082459446492403 0.5872208667289885
-0.2095571458753318 -0.3261182465876545 0.5966870379281373
-0.2574770231531434 -0.3581209825406345 0.6108088514296978
-0.2277714419362520 -0.3011656770741694 0.5879359453487738
-0.2429657320476050 -0.3165816980856099 0.5882660686009112
-0.2074701338087335 -0.3185074641630433 0.5931235156995792
-0.2120251563527881 -0.2845991708762325 0.5815963352927334
-0.2147879601110492 -0.3213409278639709 0.5949635006066154
-0.2208980666733087 -0.2721074822519887 0.5768499656239378
-0.2313342575653834 -0.3177649694855035 0.5934875557241971
-0.2510472510102605 -0.3540816362581601 0.6100154815934380
-0.2026562132347486 -0.3118346218173876 0.5903790835264114
-0.2310239190971920 -0.3329598248763979 0.5982539928167105
-0.2439705164323230 -0.3565714099979577 0.6071124885089266
-0.2539509506941986 -0.3539694282692056 0.6017802065955402
-0.2327230080785513 -0.2767991611251605 0.5804409039102504
-0.2528123363780703 -0.3444424895193637 0.6051407934687599
-0.2273570920324555 -0.2681820397970927 0.5760469860354753
-0.2292116328876810 -0.2934935618193237 0.5847443770584123
-0.2493748714872293 -0.3366219883849184 0.6046899830345476
-0.2358938023457688 -0.3563208498412622 0.6066845718961381
-0.2219869363897998 -0.3182089965652199 0.5938340720830337
-0.2418394125615007 -0.3226778139792215 0.5930556821546193
-0.1807735355903532 -0.2357694761766468 0.5588472254313611
-0.1803354439458208 -0.2521980541664987 0.5671065248097655
-0.2099129893466005 -0.2473284535576926 0.5664541922190682
-0.1804617839233085 -0.2854008785857269 0.5828037723930188
-0.1946510070101729 -0.2894639666089373 0.5835423101137693
-0.1744387304104141 -0.2450690312309879 0.5631600256919554
-0.1857040450697378 -0.2920488486315640 0.5852791315045125
-0.1964993297904438 -0.2817389977169770 0.5795751782927001
-0.1884349105339136 -0.2837097035179463 0.5818184901524769
-0.2064855581676181 -0.2567324440072947 0.5701381189899295
-0.1614473346716327 -0.2464180708563771 0.5633474158599066
-0.1828553188211943 -0.2768072163586244 0.5783550224027346
-0.1711537496758475 -0.2530653343027875 0.5676768918669698
-0.1858688240560362 -0.2680477859060263 0.5749062519210670
-0.1700879151006657 -0.2306072020853160 0.5547288813329855
-0.1627230292765341 -0.2333163042871505 0.5556347417979703
-0.2007547541775924 -0.2500263914885857 0.5664157532102576
-0.2038888052746234 -0.2750614918151053 0.5781243883498711
-0.1899193346094519 -0.2602807036882368 0.5711081386828560
-0.2052256913898740 -0.2654475000158983 0.5735196212061792
-0.1837659841622805 -0.2445970228139755 0.5623078667833967
-0.2147921997076092 -0.2626968497677759 0.5727830619638233
-0.1928457867949286 -0.2990475746327977 0.5874057131390041
-0.1912625801195425 -0.2744993213112505 0.5776402264227201
-0.1983130291988081 -0.2607580822608918 0.5720190866637129
-0.1788729244525091 -0.2614443316240691 0.5724984437147626
-0.1696713040787038 -0.2622839130628327 0.5725634508620152
-0.1962787294494389 -0.2680322407186397 0.5752561599571516
-0.1921500689994340 -0.2404583286521119 0.5622021595091676
-0.1674171105877565 -0.2390295846113948 0.5597061676944154
-0.1903448487841897 -0.2500419366759724 0.5660658451741730
-0.2164517191210751 -0.2527178287047536 0.5692008855104013
-0.2038082529399836 -0.2413223584310382 0.5639782678280333
-0.1757137184158888 -0.2698084903573907 0.5762284407682430
-0.2499528698182414 -0.3640128911999398 0.6092605507659890
-0.2479930456484427 -0.3719898334474489 0.6139800696565713
-0.2411940046451846 -0.3654468640764142 0.6090214375200054
-0.2583130715947737 -0.3672474207354426 0.6112913175182247
0.0195002010275368 -0.0581791356734492 0.3566060333698644
0.0210963384724309 -0.0787017507413993 0.3969375980848328
0.0019691866122019 -0.0543591178530117 0.3771974712219717
0.0261029487100673 -0.0543232226021370 0.3664752488819830
0.0048426438406787 -0.0717235161235389 0.3900728433348948
0.0167508226583824 -0.0632847404907615 0.3638353934239617
0.0228860841602312 -0.0550147008010716 0.3467557547223805
0.0044984592599501 -0.0645468683866708 0.3655659967397501
0.0054120923186282 -0.0749742974458549 0.3998210890251682
0.0057757790435328 -0.0642615435381834 0.3859479985217939
0.0142616848580688 -0.0530417338819370 0.3744558654465107
0.0106452383324536 -0.0592937256090709 0.3691450641556948
-0.0053253925689765 -0.0553620650792203 0.3796465448347934
0.0281704586324898 -0.0635617274660142 0.3751929899684078
0.0139240009920655 -0.0727292897474541 0.3931714231407071
0.0070300636858063 -0.0495320545296908 0.3591249190060406
0.0143490205472047 -0.0517045651269157 0.3615816238926702
0.0219243316805972 -0.0952258609737362 0.4179043815523841
0.0285193774293771 -0.0584597969657206 0.3541549812786481
0.0173854196034705 -0.0875171438685893 0.4153532749823525
-0.0032230472948195 -0.0647466947045318 0.3835331243212228
0.0037608401184543 -0.0535400277976213 0.3691874601212947
0.0081614706877826 -0.0612111538132696 0.3562442544634118
-0.0016045813080428 -0.0647835791946037 0.3909592016557036
0.0194416239350663 -0.0582772116738703 0.3695492390277473
0.0151351830693124 -0.0530338199683583 0.3516360956424719
0.0147315734768012 -0.0942722343875089 0.4075134130236165
-0.0002071396219270 -0.0682833661548766 0.3750782382215174
0.0065857539663192 -0.0595622333912037 0.3793808634503673
0.0181977263043648 -0.0623599431611419 0.3763868603597014
0.0072907282143031 -0.0567895372409693 0.3628003665837825
0.0194653656758022 -0.0877101868319543 0.4067909857697940
-0.0019412759348488 -0.0590069875617302 0.3729785073652390
0.0142488247485035 -0.0670781901727563 0.3846057422509006
0.0115262971575624 -0.0845785381729740 0.4096951094133881
0.0255145633674832 -0.0705482999571093 0.3863860901663263
0.0138560261272203 -0.0782365256788829 0.4027707176718395
-0.0067319493876963 -0.0580648078862147 0.3878230307603927
-0.1641078228329126 -0.4727593908830299 0.6318460122001455
-0.1673706163454819 -0.4445239604332582 0.6248837467293277
-0.1817603723496339 -0.4622662480771660 0.6294356602359050
-0.1813415002095068 -0.4542983503023183 0.6276033066026768
-0.1618861329155918 -0.4853820830409775 0.6342894330175538
-0.1734222164752136 -0.4658684919543054 0.6310924945715497
