ply
format ascii 1.0
comment object: PointCloud
element vertex 818
property double x
property double y
property double z
end_header
0.1872423647023943 -0.3548459348233464 0.1418600477647015
0.2078719917973045 -0.3597990633459864 0.1338679707240177
0.1974919245871203 -0.3565281078519504 0.1355925395852039
0.2055251457220686 -0.3572412177291318 0.1526272830788518
0.1996353359740477 -0.3504257747069674 0.1753706063814978
0.1986259995028422 -0.3557657992165479 0.1659278190541512
0.3790389343679587 -0.3743363167790488 0.0250274736151931
0.3597549803878458 -0.3885885004161350 0.0544180716182078
0.3672745534253478 -0.3890585009426815 0.0031473055176217
0.3663343346786345 -0.3969981682442425 0.0176184889368782
0.3871242931250041 -0.3885181853767304 0.0182360857380882
0.3678063789401014 -0.3745977123938012 0.0220165531507818
0.3424598753241423 -0.3896925336122352 0.0631658720622756
0.3536216803253540 -0.3844232051058951 0.0282885240494986
0.3654228514898203 -0.3900675652968613 0.0314801302188814
0.3566271584492541 -0.3806138932884921 0.0104426541260628
0.3649661302741212 -0.3878317429680539 0.0130310312731852
0.3493080812361841 -0.3928667787153873 0.0098592352232632
0.3559388112213986 -0.3992478141179484 0.0434998657782771
0.3776311097245236 -0.3887731046062746 0.0157108397408956
0.3573253018900297 -0.3891728989402267 0.0050031436319378
0.3747760578923529 -0.3860831733852134 0.0267200415141734
0.3855873761646438 -0.3876022394686970 0.0281084914253884
0.3683604092041407 -0.3888972443933348 0.0467959648854748
0.3443035225957134 -0.3948659680787681 0.0206936290193215
0.3778897297456155 -0.3875816129981596 0.0048932083536117
0.3615775113782332 -0.3868770475955808 0.0398210612863326
0.3556925997366724 -0.3902366043931390 0.0191138264157330
0.3540995178222366 -0.3961041549684692 0.0281603025070550
0.3666428065388088 -0.3987969162065962 0.0357787084482404
0.3751777026220788 -0.3993531778302450 0.0257661080693719
0.3646981494273500 -0.3853697369676014 0.0232227935016822
0.3759322287105503 -0.3890292211507312 0.0380906146973943
0.3525203682995094 -0.3912876836160653 0.0371133880352049
0.3471640167683953 -0.3904342702005054 0.0503913927207879
0.3424859985585961 -0.3958354666174317 0.0370944486902259
0.1723889112856319 -0.3307732654274367 0.2062628549783606
0.1867135868983272 -0.3382894097904169 0.1882212784901424
0.1780677759154390 -0.3312165440620732 0.1949791415496983
0.1631295308335121 -0.3294568721045898 0.1982970100189407
0.2010143162127732 -0.3529714839044821 0.1865487384042432
0.2138950300410392 -0.3580305203734698 0.1816899256426622
0.0619286647938665 -0.3083955585603322 0.1579279050431313
0.0820974344942889 -0.3153274676694361 0.1334937553904682
0.0968266937005861 -0.3145008305691913 0.1365908825285767
0.0805352650739565 -0.3090462447918502 0.1470491017485016
0.1025386477607013 -0.3248490600873850 0.1378445800887347
0.0686864190066123 -0.3003781202128663 0.1580357722320631
0.0713193144991162 -0.3116136689280045 0.1615804774538119
0.0901965079494227 -0.3174478579560012 0.1456284331814603
0.0931009762334350 -0.3178725782094945 0.1280995251693963
0.1051586993295990 -0.3248595093811665 0.1508526446849627
0.1164673386778023 -0.3305713545944715 0.1441028362893633
0.1233978327783734 -0.3356055739907282 0.1390863044997680
0.1152280088965941 -0.3159879501138742 0.2006729181925064
0.1259537735760489 -0.3213576898026458 0.1752394459751783
0.0805001075542543 -0.2998329065404552 0.1974420183246326
0.0749460902157737 -0.2979775038133800 0.1738496899022406
0.1028384118760578 -0.3037806715004628 0.1909490884011615
0.0675381940055612 -0.3060444674594978 0.1700660659320505
0.1087077584237567 -0.3325660812386332 0.1943331357310198
0.1140962197638866 -0.3209841819733628 0.1733388718218603
0.0820258132931616 -0.3123718413846185 0.1610950206802137
0.0886238892353089 -0.2991734037173091 0.1915325073039611
0.1002447012352343 -0.3285858799291789 0.2156474092622377
0.0937367504519524 -0.3127395259095546 0.1923305721165222
0.0937149810899076 -0.3102736558473391 0.1753744160198558
0.0837550625671873 -0.2989943507144909 0.2129480083686870
0.0646623524326377 -0.2961998177088046 0.1751473615737290
0.0856704398866960 -0.3064638542192902 0.2037427247812486
0.0775482909077945 -0.3050543424502968 0.1657408202341867
0.0744746746806943 -0.3001976522015152 0.1897200990669243
0.1104859887623831 -0.3145581928381793 0.1830329864340139
0.1184505275600803 -0.3279145672271235 0.1934609462406965
0.0793955301241031 -0.2944532617919532 0.2058063514562819
0.0978658541977928 -0.2995292239399308 0.2025000207489232
0.1002654909759871 -0.3161387029460342 0.1848622659266353
0.1057691122413341 -0.3202759702026415 0.1933962912354236
0.0900471701257955 -0.3183451366360812 0.1689797747660168
0.1247303354291332 -0.3198512499491482 0.1902917625142198
0.0855065165904989 -0.3087172553079487 0.1845091668742693
0.0775846457424093 -0.3078714611691046 0.1758290691461607
0.0898978323021684 -0.2908355203605442 0.2021249346408919
0.1126723946393489 -0.3237214071334662 0.1865210913144463
0.0825553530249004 -0.3081421631861312 0.2166585961292170
0.1130729509009727 -0.3088712191210103 0.2075861056502515
0.1022935247440774 -0.3127365326222734 0.2035085952924571
0.1073490236917327 -0.3243578344328449 0.1641720111584308
0.0940548008314263 -0.3214113512800861 0.1595464571111594
0.0951804945427611 -0.3047444011581845 0.2108702316083246
0.1162458354189969 -0.3128055959233604 0.1912807446319134
0.0666734060983329 -0.2972871973429406 0.1849569626515301
0.1016932345856930 -0.3205084669892796 0.1751230887350491
0.1438893332711092 -0.3298329378339132 0.1809202698475696
0.1444236622624979 -0.3357782594551483 0.1930330694297067
0.1483807880481849 -0.3427737351014228 0.1833255666598955
0.1582883512551874 -0.3361818634274582 0.1928311585967415
0.1180111129872067 -0.3313115129039935 0.1825601558904016
0.1376574179985547 -0.3357829398679879 0.1728934706744244
0.1275340115668783 -0.3278047407956076 0.2026487054916890
0.1147005372542493 -0.3306364449869854 0.1565431559234640
0.1363297046074447 -0.3283786356025127 0.1890541742819750
0.1338094655635222 -0.3389458104794716 0.1634124781166890
0.1403759759307049 -0.3253482859824765 0.1982330080945291
0.1346049180526381 -0.3270890185949809 0.1669163657846041
0.1198676041823843 -0.3296955731594107 0.1729330909133459
0.1255261144586795 -0.3346189320794544 0.1523158723548014
0.1336773255359107 -0.3411333592479447 0.1533282565366932
0.1297635207806928 -0.3324365535344668 0.1804694263596225
0.1462134303630081 -0.3459191902232707 0.1612049559585397
0.1239768978087640 -0.3335131573343906 0.1648767942546300
0.1385238386079363 -0.3378739959391976 0.1846804917535616
0.0713151783203276 -0.3003742017276982 0.2151941711444657
0.0802197181711179 -0.2982287222513766 0.2217373882942603
0.1169251483616039 -0.3162883673100919 0.2243215204157837
0.0968363810666960 -0.2954074673537803 0.2332128898025369
0.1072932941248981 -0.3152221039571394 0.2284848020600347
0.1258030207438889 -0.3119544682908153 0.2256368252705286
0.0881510586916967 -0.2956304400445238 0.2280971985688275
0.1344536209864268 -0.3182855430074836 0.2206832069372426
0.1057030422275281 -0.3013189920404410 0.2270724058505705
0.0917793582636975 -0.2978797593777990 0.2183837092244542
0.1266771694767964 -0.3187799252195203 0.2063084617918444
0.1104545320342284 -0.3168543707232558 0.2136156747025999
0.1221807077464505 -0.3183509055170231 0.2155949450997098
0.0805495240060959 -0.2871155717743350 0.2226448441510965
0.1019284525425867 -0.3093810031566936 0.2174967165679404
0.1153603666178263 -0.3087982917581604 0.2306413839109993
0.1252598751608723 -0.3277210920219506 0.2289172504370540
0.1400567282363184 -0.3304403030349620 0.2072855796072236
0.1595108097808111 -0.3400705245695143 0.2128343722988134
0.1377564685958584 -0.3173108742453345 0.2093435462481253
0.1513247677243085 -0.3315000355793011 0.2009235923964517
0.1442651813068120 -0.3349828069660326 0.2216873187615573
0.1587625968073326 -0.3271437685405235 0.2083149438915102
0.1462698130107040 -0.3206565530745891 0.2178720203695921
0.1487484725731209 -0.3246513942800185 0.2083318151470949
0.1665164081804365 -0.3430678391826475 0.2005975961998313
0.0814047333940245 -0.2934021825690269 0.2354449024929866
0.0860778534973637 -0.3120127013342850 0.2401266214943334
0.0723634819495933 -0.2990600941878661 0.2419609079402252
0.0840752898828659 -0.3162427604966082 0.2241489982215794
0.0432269324016409 -0.3013675921412059 0.2275977005567106
0.0407230203792522 -0.2817501315345672 0.2252076422978161
0.0388753457757029 -0.2911087258542060 0.2210629734581133
0.0436823474556173 -0.2995476190508586 0.2172881660795515
0.0365653987691330 -0.2713011098701063 0.2267295383983655
0.0223418418431356 -0.2757230659588540 0.2346966895195080
0.0320190851997046 -0.2974714749926495 0.2255615032778535
0.0394301379674137 -0.2599594899384050 0.2282207396984318
0.0402408290099607 -0.2164224529744364 0.2355154352260116
0.0399748074057737 -0.2287815728881100 0.2338875223323042
0.0266359573532755 -0.2619499715569679 0.2362247898882402
0.0365909777695356 -0.2482594918840417 0.2328401983243306
0.0631291362638250 -0.2931214122220546 0.2485020570006255
0.0571604125783918 -0.3261448813630995 0.2250375147334362
0.0684661130627194 -0.3267100684251867 0.2207731144024875
0.0569418481834623 -0.3152328797913516 0.2202768817946773
0.0429683123805491 -0.3116336423176806 0.2257117118759626
0.0832306386355289 -0.3389745460373707 0.2279936852523049
0.0460153699859546 -0.2907621031870483 0.1695124710552522
0.0299815817591250 -0.2612511750353310 0.2266693461123117
0.0344782611830913 -0.2956722372196497 0.2126524892789294
0.0252111526074457 -0.2985610315629899 0.2061968938113650
0.0409850146514609 -0.2982529950900565 0.2030124715314567
0.0305375712657482 -0.2775543591174646 0.2147180751965468
0.0367616495679666 -0.2848843210115570 0.2115516126403257
0.0322357991988602 -0.3109770239350054 0.1964637031943408
0.0414393412373351 -0.3036823828308307 0.1909725993121698
0.0290138247694250 -0.2818136980717380 0.2235959475788320
0.0339196593530227 -0.3065670409953823 0.2075744590415576
0.0267795262959607 -0.2700916041148992 0.2207540662106983
0.0213825749046331 -0.2868082972290732 0.2161938202495613
0.0291169026987069 -0.2376991743561269 0.2322987942902773
0.0915150782084741 -0.3177691193163767 0.0823712386454069
0.1004494420852653 -0.3137492433445958 0.0874587385552681
0.0862994656029792 -0.3096532290290633 0.0670506147191637
0.0920843470259446 -0.3020957228781981 0.0614885427167266
0.0832881097513272 -0.3122440552294158 0.0771640072442995
0.0993281022463397 -0.3096993800765983 0.0743191870122898
0.0869526553111323 -0.3041629959213740 0.0830617628094668
0.0740351512610106 -0.3187789455982282 0.0934091759765838
0.0861095279191388 -0.3129960234178470 0.0937361517944961
0.0744390817737512 -0.3159030496018996 0.0811316911705781
0.0857033116233835 -0.3262979744016793 0.0953727724330215
0.0709327994760115 -0.3203173319905265 0.1340706434846544
0.0534252254387512 -0.3262528573988415 0.1212487069339092
0.0489472676661434 -0.3149976618344579 0.1356156151089713
0.0678806260705253 -0.3288431937885480 0.1297511666677325
0.0680573932903289 -0.3203251689608627 0.1040602717442252
0.0617641972636184 -0.3218357449931488 0.1272431184665553
0.0744731508253514 -0.3186936641224178 0.1123010637462705
0.0686815209001523 -0.3247196412300288 0.1189864348302174
0.0857940898631101 -0.3262428434923010 0.1176469659836031
0.0934872735629193 -0.3190381642767762 0.0989394647104355
0.0839171354676107 -0.3190565593877041 0.1065615714431686
0.0549775986461633 -0.3231007626215700 0.1493398917164720
0.0499754346355176 -0.3236138120615600 0.1412104500012858
0.0653770405885673 -0.3321658515174402 0.1509839139380926
0.0620175926378194 -0.3211915351468391 0.1619570874171863
0.0484905464504442 -0.3245316083653672 0.1306626498565467
0.0647156873696474 -0.3140541776834379 0.1496461866404419
0.0774137562503579 -0.3297675209009686 0.1280773204201106
0.0757731082798545 -0.3234016696284338 0.1471039605408546
0.0786376297845145 -0.3215994385681529 0.1223591620918126
0.0697065313120298 -0.3313490106301156 0.1397337253269794
0.0584366414282660 -0.3269679809420120 0.1376079471233081
0.0418851777720119 -0.3158937976230306 0.1681625529148564
0.0449040440535695 -0.3254051584408185 0.1636835066741465
0.0525971189065684 -0.3230076441754235 0.1724273886330460
0.0450114758552604 -0.3186299887384370 0.1550624039171790
0.0526524130861621 -0.3188012047709190 0.1609732210995732
0.0456069767539949 -0.3217222177700854 0.1803553549025080
0.0387052182113230 -0.3134528534803564 0.1813569632501875
0.0496110155148882 -0.3147913971290838 0.1886150862495322
0.0403067901769563 -0.3155980608396525 0.1923423275720263
0.0511031964362465 -0.2850072090602996 -0.0888482769345854
0.0421600159678270 -0.2918715787236596 -0.0949848424013838
0.0546420239302433 -0.2928800988437884 -0.0941943968655384
0.0607240571451196 -0.2646924757873672 -0.0391035431133371
0.0901403429953472 -0.2705038069852169 -0.0710370202968008
0.0773698909858377 -0.2680237324142672 -0.0532022527480078
0.0704250291063172 -0.2806527924172958 -0.0836264600609080
0.0789985658072168 -0.2720875280739734 -0.0707925503610381
0.0512803990432909 -0.2817444170770305 -0.0790420501079012
0.0515808162395087 -0.2554039243901076 -0.0398567630400860
0.0546082814190739 -0.2762823752931891 -0.0589728752388337
0.0702718816443323 -0.2789803611782069 -0.0700698075411519
0.0887558115693002 -0.2603600462000286 -0.0510444735821308
0.0520339455104704 -0.2680825096917880 -0.0536269730015011
0.0854826791390597 -0.2715598931614134 -0.0580986176591160
0.0594828769681374 -0.2852422093235729 -0.0832422308208179
0.0630777605693994 -0.2733190208848457 -0.0653378013134817
0.0609428392336694 -0.2798717621305348 -0.0744979134746773
0.0500395454067394 -0.2767172183000333 -0.0702859773062564
0.0735163873634839 -0.2725281399617594 -0.0611180281747247
0.0638051838021253 -0.2685039101175695 -0.0519256973577029
0.0749002657086696 -0.2626968783687237 -0.0447302701210472
0.0232006431758016 -0.2925926344179873 -0.0791582985012202
0.0351710711301659 -0.2995093049736598 -0.0950838929986875
0.0321010468478031 -0.2930145790778199 -0.0853921730163587
0.0309966871112723 -0.3036722600774799 -0.1036871448787780
0.0252923523278727 -0.3008887205996262 -0.0929548493907096
0.0195307641222953 -0.2495440475148981 -0.0229193285947782
0.0190697978809975 -0.2692076591690716 -0.0512358262745043
0.0178882657560179 -0.2549814899196289 -0.0335527911791633
0.0298712110935580 -0.2782603395285763 -0.0619245830384832
0.0286314459251087 -0.2820213233622399 -0.0780972597951585
0.0187877757957076 -0.2863694813136559 -0.0705563527828524
0.0350501423240072 -0.2643621257183379 -0.0427002771103730
0.0231852957755600 -0.2756211309210794 -0.0705785575321380
0.0250267661109266 -0.2668264175018052 -0.0424804065537209
0.0182455009871725 -0.2731294097414358 -0.0608515711832968
0.0374348670892009 -0.2754999844213003 -0.0720656226534158
0.0409863208131836 -0.2684380577973841 -0.0589280303530215
0.0285313068597028 -0.2644813129755330 -0.0515079433000639
0.0407323812049314 -0.2844767985540790 -0.0810113065984705
0.0161456283243346 -0.2604287285372798 -0.0463736392618064
0.0374899435751741 -0.2715634851061509 -0.0497165424974003
0.0122035233984586 -0.2604172996222063 -0.0270557250769037
0.0347812907027544 -0.2523774932552394 -0.0278509598723989
0.0471414990845302 -0.2631643754186351 -0.0462401930724720
0.0172928737040936 -0.2662192699943767 -0.0360519139419022
0.0413164531885924 -0.2594203716873664 -0.0351902825921705
0.0282788911067938 -0.2561688997723605 -0.0350387678323389
0.0119221543940300 -0.2739543597161221 -0.0455109194439724
0.0635270802020034 -0.4730511760965874 -0.3070334495771914
0.0654290693638543 -0.4819949007990580 -0.3203441083058412
0.0885771939537229 -0.4907442795218741 -0.3230567885102396
0.0724012517927409 -0.4869920578564336 -0.3147202113151974
0.0819726960497723 -0.4807721157330036 -0.3091971064708204
0.0895656318373655 -0.4859466930910440 -0.3132263976916857
0.0779869435529966 -0.4965387938875442 -0.3399006146987557
0.0777459567151610 -0.4926407719198088 -0.3236158257275491
0.0713107156011085 -0.4976878896630770 -0.3310272050356884
0.0820362625869431 -0.4971426759906658 -0.3310899007983786
0.0793763730855037 -0.4808287160743201 -0.3187262093186748
0.0720478261999443 -0.4803535997476930 -0.3072319861590396
0.0948750703932731 -0.4468777632633579 -0.2648814338499158
0.0947502231019463 -0.4575593905612673 -0.2900446394374580
0.0821734095678252 -0.4629163951732427 -0.2882717425925324
0.0701895934558032 -0.4336044934140196 -0.2730092428629487
0.0817589209144928 -0.4485436636938335 -0.2791427606190608
0.0955426278803758 -0.4583757960613509 -0.2790280360810849
0.0773691290581662 -0.4496365400918859 -0.2687925174348780
0.1018544367116343 -0.4502466264631902 -0.2730482100210088
0.0611792545054756 -0.4523606492113572 -0.2844451241323039
0.0858475336469300 -0.4408040024060588 -0.2698735839540209
0.0865608067943267 -0.4562120303209118 -0.2826043068777986
0.0903246206450561 -0.4502336192693686 -0.2732674274967996
0.0787734706036739 -0.4695121853323753 -0.2951369286069691
0.0647598791745982 -0.4455365528677800 -0.2715110753670281
0.0709978898685252 -0.4538174004959878 -0.2781764186378938
0.0686658469594799 -0.4631109044231126 -0.2865922363107789
0.0859711836233443 -0.4378362397019012 -0.2599733134833034
0.0570892267645054 -0.4366525850641225 -0.2611453759357935
0.0762362514573568 -0.4397948836284739 -0.2627286616373091
0.0683458373374219 -0.4287608647824648 -0.2609710033458149
0.0685381696510874 -0.4696936329650184 -0.2978548334582578
0.0663528522422238 -0.4398040267605326 -0.2636556010731751
0.0608016649208091 -0.4265931805568576 -0.2495420882723141
0.0885496557107364 -0.4700932640287552 -0.2940216841894158
0.0979453123692561 -0.4669843814351424 -0.2936283118172669
0.1097397350314888 -0.4574852658835050 -0.2702580308877315
0.1047680481277057 -0.4641339555924063 -0.2823840009339056
0.0846792808327978 -0.4730373525516890 -0.3023051441410687
0.0954902725646581 -0.4766686998343760 -0.2996645205250389
0.1231867788133494 -0.3728860963030317 -0.1758495323464828
0.1275940950061220 -0.3804508407667768 -0.1828862609338322
0.1143521186147229 -0.4041203415776174 -0.2168606158089924
0.1182665764508021 -0.4149125028113090 -0.2211716025747169
0.1300026572227545 -0.4194627892893107 -0.2219359248761086
0.1242522802386302 -0.4324309071061864 -0.2401440369839692
0.1261522013110871 -0.4260886755914702 -0.2281025320625287
0.1171636317228042 -0.4223934896545870 -0.2305555037777327
0.1398513343054259 -0.3847232957616821 -0.1819584507234843
0.1214688496075868 -0.3954849798885109 -0.2004356321462183
0.1329680797204922 -0.4009971456284604 -0.1996255941845326
0.1316258897036224 -0.4067186237844703 -0.2125537652220564
0.1214857208631714 -0.4030950046253092 -0.2085371002311770
0.1255363460588405 -0.3882876478326764 -0.1907789608367816
0.1267135243114112 -0.3876663502399188 -0.1755613059930101
0.1369004972802584 -0.3763159137165893 -0.1730260460892770
0.1368373661303285 -0.3936674558513937 -0.1896669818235351
0.1485635418425507 -0.3638671584546964 -0.1567578018332252
0.1196076779995698 -0.3301120754787321 -0.1277705901088999
0.1487187573939297 -0.3582734664538893 -0.1470059984116529
0.1291347127580299 -0.3329777398748996 -0.1245097573682148
0.1197040074266177 -0.3437049195628876 -0.1451355748247669
0.1413023711325197 -0.3312386943879537 -0.1158089787461637
0.1342237365232343 -0.3569292083476252 -0.1589129686756568
0.1254263019337043 -0.3510569773594553 -0.1381565350468361
0.1311457664237252 -0.3667395169296928 -0.1646487601872111
0.1501921078171194 -0.3529413333380501 -0.1362737029235845
0.1494257174263335 -0.3342038447686659 -0.1225838219081145
0.1403171986531840 -0.3628054122443682 -0.1497204201650145
0.1229541731799011 -0.3207865705894014 -0.1165765664518620
0.1276160820617872 -0.3514847997470401 -0.1519019279355203
0.1480867928137703 -0.3461196316242979 -0.1265824183284967
0.1379075479684491 -0.3562896789141551 -0.1348621774886020
0.1377684417449829 -0.3437983645494647 -0.1383002128363316
0.1350605508002349 -0.3472825509447291 -0.1266150723715638
0.1297674392658608 -0.3647768456711420 -0.1508796386938981
0.1391416531027667 -0.3375631294491984 -0.1242685528367588
0.1327562638277967 -0.3215959010468206 -0.1161618601049093
0.1385561661105727 -0.3538317002456809 -0.1451608272847388
0.1219881577391646 -0.3586120888804956 -0.1606514699285516
0.1215332869192392 -0.3376101512712151 -0.1354849989367027
0.1457143677381320 -0.3457589132952161 -0.1147261706780571
0.1380526407664775 -0.3042459916141697 -0.0744987842491591
0.1324110017457668 -0.2936504621431474 -0.0733615527759406
0.1325422709988968 -0.3000896217423681 -0.0840267986289112
0.1323946747242331 -0.2910257845848154 -0.0635662106302788
0.1437373831240366 -0.2968332517209021 -0.0653462913646791
0.1234578073708067 -0.3134985147172453 -0.1034137216914958
0.1247467712974771 -0.3059600023347641 -0.0916434630211330
0.1521245740858330 -0.3200871209869032 -0.0993609195596221
0.1508629307085288 -0.3166500652604657 -0.0788021517381679
0.1485144519311396 -0.3086590766878841 -0.0697826696557815
0.1528907467829985 -0.3256773843131882 -0.1075279134243356
0.1467182618688262 -0.3266359437474243 -0.0825456112353855
0.1331507246680478 -0.3132244384491017 -0.0965141400850284
0.1344739753399387 -0.3218187104673488 -0.1064331322071045
0.1367603025886900 -0.3294597021216557 -0.0986405713695609
0.1428481046845082 -0.3203703948105107 -0.0950272926573711
0.1439199192247821 -0.3255027940295892 -0.1036847502489531
0.1418290808471927 -0.3084450838589841 -0.0860404646180518
0.1461920963882042 -0.3352176983824956 -0.0966282115421430
0.1479504077605599 -0.3343726117479179 -0.1092522645919013
0.1366896610088547 -0.3342444990522845 -0.1073831471667380
0.1420616864806410 -0.3726440754204991 -0.1622517357324622
0.0476091049812518 -0.3764643263423295 -0.1985710862870843
0.0902604010270240 -0.3960683987913106 -0.2200215271778920
0.0619989798332711 -0.3906597463678840 -0.2075931806929161
0.0835916835050414 -0.4035994551672913 -0.2274790575335667
0.0642332783067353 -0.3815374584732412 -0.2055438129500221
0.0541701730079231 -0.4165445518838050 -0.2396583625167505
0.0738161514788404 -0.4110285220820925 -0.2311350041953643
0.0889052582397375 -0.4008221743810256 -0.2078726993015708
0.0976167038491905 -0.3931301879961289 -0.2097731646080787
0.0687423662670673 -0.3907663073950932 -0.2166901617041819
0.0879976935360914 -0.3916541164026837 -0.2116679698804549
0.0794901180021875 -0.3955767377495297 -0.2209327926730858
0.0579262587351266 -0.3834744963079842 -0.1978814328975062
0.0574023790375193 -0.4008276167215368 -0.2153143380229528
0.0525171165010539 -0.4059159874058798 -0.2251236125603233
0.0489557577173408 -0.3872374938076370 -0.2037591606495923
0.0775972719723954 -0.3883257986396598 -0.2129249328449196
0.0687602171439439 -0.4003367176074274 -0.2188629617298697
0.0789926880794647 -0.4051309842105456 -0.2149481773533599
0.0613097618309339 -0.4105530792150349 -0.2320345142350539
0.0480671323586736 -0.3935379281472273 -0.2135196718159825
0.0551399980870173 -0.3422947547130329 -0.1611739346176259
0.0493556608981031 -0.3537899030705550 -0.1653327535426576
0.0766608628640398 -0.3395961701705589 -0.1614680386988507
0.0446647987646975 -0.3611134430028441 -0.1746892253494969
0.0647652126682992 -0.3297298599046312 -0.1472759385010080
0.0414605663653288 -0.3475702330641507 -0.1581989336005885
0.0845148133025496 -0.3357136044498753 -0.1563757495293396
0.0479759187317060 -0.3403441654504170 -0.1528340920182770
0.0538376460026893 -0.3316455637645704 -0.1495251489874730
0.0397100919633093 -0.3501251398171292 -0.1724554711100837
0.0590206045651168 -0.3529912940239428 -0.1704548667381700
0.0620587367320840 -0.3374645686625408 -0.1541676831371392
0.0680484678518904 -0.3453181381372148 -0.1633090736469763
0.0730049162022423 -0.3378700774540296 -0.1523610437810443
0.0496820924819644 -0.3260300479783134 -0.1416328844717644
0.0384585713393559 -0.3365943928382065 -0.1491176265299950
0.0820754474386237 -0.3814315505268934 -0.2018850362711586
0.0987840858888411 -0.3797808886498492 -0.1824778677018724
0.0962464313552829 -0.3565782318080585 -0.1720708064827528
0.1157186903170829 -0.3691294119183720 -0.1635951230642445
0.1063824640169451 -0.3734913389912813 -0.1867840652079471
0.0626893951505207 -0.3644301141571740 -0.1869079328779818
0.1009217283948266 -0.3561528584737038 -0.1575767652333492
0.0546751133605513 -0.3732706520835525 -0.1845372493513071
0.0558857075838606 -0.3645995886406925 -0.1787108972936465
0.0846230070319121 -0.3692933352145691 -0.1870518283610977
0.0957085104191567 -0.3477335032794864 -0.1635441827570598
0.0867138454095014 -0.3611039733303546 -0.1822353570086938
0.1021408126693333 -0.3735089177511324 -0.1740274367433361
0.0670469683510211 -0.3596002546471125 -0.1797849976169352
0.1128915032683295 -0.3789286725492019 -0.1744040467067105
0.1095964926292341 -0.3578784069561820 -0.1696017254396357
0.0843653666321123 -0.3455507981940682 -0.1626294341639388
0.1143421047081823 -0.3874546976174386 -0.1950618651254684
0.0777079691783929 -0.3620334162428558 -0.1766232154735537
0.0455951124516805 -0.3688526689033779 -0.1868761496093964
0.1121600527036254 -0.3681618181988874 -0.1751864375785993
0.0717785391914505 -0.3735656813626642 -0.1941064078253237
0.0840283769076593 -0.3546842973101640 -0.1704594383041994
0.0951077848735315 -0.3931220244853621 -0.1975252861344539
0.0611237426322614 -0.3717513683064484 -0.1929049567340732
0.0893557751872539 -0.3876444720310638 -0.2030486086724513
0.0985126219441428 -0.3625145191440450 -0.1820446573971816
0.0938331887258105 -0.3727399150369011 -0.1894680098544460
0.0742740700094519 -0.3670211036277418 -0.1863408409967157
0.1071645283484034 -0.3838184522282915 -0.2034944452071280
0.0992047788103561 -0.3876748947145214 -0.1901896642062299
0.1159519490313927 -0.3817699552598793 -0.1847214181542057
0.0733796757698428 -0.3509286469702014 -0.1741924485076354
0.0825851770509018 -0.3737146382224554 -0.1957739409579526
0.0964940578485421 -0.3802922509642807 -0.1979841842863575
0.1065611904793327 -0.3815767521717320 -0.1926084580230236
0.0726304831750723 -0.3812202788682490 -0.2008220383225129
0.0787803279527181 -0.4306721059231849 -0.2526270245676775
0.0994295474734682 -0.4222221103518896 -0.2432585796117135
0.1021338464734790 -0.4022264070797231 -0.2152490299368185
0.0915871347968421 -0.4314317478117370 -0.2540215699002650
0.1088950837841518 -0.4103910063146116 -0.2244017405149189
0.1090602043952613 -0.4260004008283787 -0.2428003345406712
0.0908959575519209 -0.4123044243915361 -0.2327677063487215
0.1168501529093596 -0.4421811866724157 -0.2497273455433150
0.0651439995678781 -0.4179392604866080 -0.2393620814993213
0.0920189300930001 -0.4231653223858839 -0.2289071276837032
0.1108500813425819 -0.4358114169147128 -0.2441944444860179
0.0976371670495126 -0.4315819019864407 -0.2347752769164896
0.0700976179011640 -0.4305915048602142 -0.2483898359392847
0.1045780015970548 -0.4380221500537634 -0.2573196282500467
0.0893334615911580 -0.4226604364566608 -0.2425018765870375
0.1030854941352658 -0.4189461479045834 -0.2324812215442124
0.0935938345901285 -0.4069494878689550 -0.2133923210480206
0.1010753112440522 -0.4036467491063338 -0.2266052353410899
0.1111255726192584 -0.4493277416912807 -0.2601670608055018
0.1014177433090164 -0.4336780738577311 -0.2470719187610947
0.1027425178362506 -0.4179213551863260 -0.2184386768636173
0.0748029566603294 -0.4221068415798625 -0.2437843097050946
0.0817665401912084 -0.4162014667379796 -0.2370558352842990
0.0895519171392772 -0.4426469965967685 -0.2504448637163104
0.1039706363960060 -0.3965987004507211 -0.1965587264596663
0.1009725598552011 -0.4042299503155130 -0.2043417087779102
0.1098727458335822 -0.3945295225883663 -0.2092872724472396
0.0880193540513259 -0.3319909346934106 -0.1463842654316545
0.0426305607284246 -0.3206351646763801 -0.1329292758326475
0.1125327441818319 -0.3225381334595231 -0.1237978992293510
0.0715340692556878 -0.2934525242187555 -0.0974036362181775
0.0521788206148783 -0.2986241627129197 -0.1130817130691957
0.0880615866136927 -0.3197192187683467 -0.1357079172040411
0.0523440500727981 -0.3081837426676367 -0.1230113721786737
0.0488715102862276 -0.3219631501845158 -0.1251419396419947
0.0857361833600710 -0.3052972341073113 -0.1227862769751308
0.0871432460758343 -0.3021824193625414 -0.1080192479256859
0.0670360836699987 -0.3037624396597504 -0.1076141200980329
0.0641349896371033 -0.3036770493371297 -0.1200224387699276
0.1025951392552076 -0.3148322146829177 -0.1220905281641802
0.1089884743473240 -0.3144944630307932 -0.1147692740149058
0.0477820625626974 -0.3072602863296978 -0.1143114643311044
0.0976701476330105 -0.3066418187540061 -0.1107624052369466
0.0430485324796840 -0.3304801409675039 -0.1352096165068365
0.0620740841323256 -0.2918424622019247 -0.1008876049198214
0.0583000386814351 -0.3245516906018535 -0.1362935130430452
0.0795639161395193 -0.3061207690734647 -0.1147054897841146
0.0515844081842460 -0.3162246919261110 -0.1329055472280187
0.0721276109118384 -0.3127506282841974 -0.1250241673933325
0.0695213828878392 -0.3198759581750690 -0.1330984237757353
0.0990771015019634 -0.3245663849212337 -0.1425387076264470
0.0416276462190223 -0.3039072059173480 -0.1062500518723080
0.0501561203404891 -0.3009546817666219 -0.0994900118765476
0.0829123705624347 -0.3120811115545107 -0.1288636297771674
0.1011837226670353 -0.3191368339102441 -0.1306156280345300
0.0394571319763492 -0.3111158580414459 -0.1216869241918703
0.0603854347185133 -0.3161916024958030 -0.1277945364071491
0.0779779092677480 -0.2997727142544014 -0.1046291051744549
0.0925308366414826 -0.3126445026442292 -0.1214822921886495
0.0741394265052051 -0.3262506804626371 -0.1410085391683206
0.1282361823396323 -0.3312224762132304 -0.1116425405444164
0.1082558264677073 -0.3437862281301248 -0.1503290915277861
0.0985854404601825 -0.3412541792072932 -0.1541918471290089
0.1097299388185685 -0.3449518686208116 -0.1400202101314883
0.1102808125251112 -0.3296523609757518 -0.1342609077089257
0.1149218228194343 -0.3503057166752905 -0.1543779751744916
0.1053575624518778 -0.3352353859891570 -0.1461674425856886
0.1108836061601307 -0.3618134368393934 -0.1570575659485816
0.1146615700961891 -0.3522486866611908 -0.1448675939779958
0.1183121832642859 -0.2952827833326689 -0.0812516403554447
0.1150804126219305 -0.2833107770995564 -0.0539526426576908
0.1049910752418542 -0.2977099583538498 -0.1016913297665141
0.0779294724371985 -0.2811765632680929 -0.0773237943617080
0.0671862922681076 -0.2898359801022589 -0.0869628324878884
0.0976642699052584 -0.2737967495349180 -0.0571309695162263
0.1113748318146709 -0.3068663697234978 -0.1005188319267831
0.0882909268428343 -0.2881759573995354 -0.0870751623960394
0.0939187423186465 -0.2976857399385751 -0.1016151369993574
0.0872934546739432 -0.2791812379664749 -0.0746646667879402
0.1122213334577816 -0.2830532999699719 -0.0726222652409004
0.1241622639265751 -0.2853298310058031 -0.0650909367478941
0.1017413448758118 -0.2767671789859260 -0.0688500701857838
0.0777426913108543 -0.2822985561878800 -0.0898731784996529
0.1159880861723869 -0.2807089573713713 -0.0636537234656988
0.0945829255546324 -0.2925372313915834 -0.0929692171696591
0.1083087260174761 -0.2755822726098295 -0.0598236219075431
0.1039877253452109 -0.2951938554887161 -0.0906982373211494
0.1058823129239668 -0.2895936326792956 -0.0804607594323584
0.0868410873306530 -0.2774028443576331 -0.0845710326800302
0.0954975653009429 -0.2834400326866972 -0.0796748854625425
0.0752085198752234 -0.2961222099331150 -0.0879339637287053
0.0814483809649243 -0.2929296241424402 -0.0953729901266419
0.1156707977205845 -0.2979270533168413 -0.0926202542960816
0.1227682628280388 -0.2890826513286999 -0.0745005257981226
0.1397540252570860 -0.3169686598739908 -0.0761471603431886
0.0409156792333483 -0.3135944087570525 -0.1113038092709999
0.0304440718557660 -0.3141380985741204 -0.1158168157164998
0.0343217394699895 -0.3212005150086826 -0.1247296279248669
0.1061242793830944 -0.2532383082538945 -0.0146323855451980
0.0750736586773561 -0.2509494775285080 -0.0193482824449552
0.0725658281697993 -0.2391547283258449 0.0009819070750291
0.0634543705327738 -0.2494623035604200 -0.0181463959664638
0.1055505478464046 -0.2512342207840536 -0.0039501595898326
0.0799678466522599 -0.2611660568297360 -0.0338967470994706
0.1004630479365434 -0.2536205238279954 -0.0232519644468221
0.1082199070203334 -0.2625915690798322 -0.0165169592174132
0.0812442931957547 -0.2508773665167348 -0.0287361021331390
0.0960271050326819 -0.2539632280099851 -0.0016506618770442
0.0871690427698573 -0.2532341720751060 -0.0185798239647750
0.0888195958000913 -0.2461516189806524 -0.0001585898024961
0.0700296974915843 -0.2481448761928760 -0.0034492465691826
0.0777614129622128 -0.2466136736900525 0.0099513196247125
0.0967437524311955 -0.2606359728639460 -0.0316148825699385
0.1061279801746418 -0.2482458316093586 0.0057487442819709
0.0744511637696862 -0.2354862642808716 0.0156568517230246
0.0781124439251846 -0.2464579139046222 -0.0098359420058753
0.0850870209838963 -0.2635811498549820 -0.0422315827455492
0.0889741582706092 -0.2550995887087217 -0.0365264860344780
0.0966244563271901 -0.2489365734670390 -0.0117999738495538
0.0704284033574343 -0.2596228267543827 -0.0365863517801011
0.0818707065885927 -0.2372837605049077 0.0074178012699429
0.0986302853459948 -0.2672679545874781 -0.0439859756327367
0.0711593096880873 -0.2578419840923108 -0.0269118295937878
0.1143597378914386 -0.2580310510016696 -0.0071241325759591
0.0876753981310186 -0.2455077900981785 -0.0129657231870509
0.0620360965955575 -0.2567728362988874 -0.0319000612127249
0.1220695751532121 -0.2346421028441808 0.0506480534992957
0.1086554031080390 -0.2326955953369483 0.0522685648099079
0.0931210040465161 -0.2376529688851869 0.0378609479278221
0.1113874580446567 -0.2257886665707908 0.0618290155391067
0.0936760139318474 -0.2329333711938822 0.0508746725581817
0.1372414054898793 -0.2425277277044657 0.0482050956906323
0.1321265850306519 -0.2272878681114086 0.0537036011558987
0.1172151162640401 -0.2230445296382381 0.0516995136860578
0.0814027741514403 -0.2228764157398474 0.0470748304132682
0.1151276521375676 -0.2433429358896370 0.0304417316493462
0.1008874416496061 -0.2309452297817390 0.0423121293851148
0.1246844020752189 -0.2266493182992305 0.0441213810646551
0.1228829873660146 -0.2393183795050164 0.0380235650622964
0.0912876972219164 -0.2266532367843986 0.0429573732761216
0.1046172952955455 -0.2369707170787040 0.0297411935787457
0.0786158604224699 -0.2362798663742134 0.0244629940573723
0.1024268620866016 -0.2224828800974832 0.0544960059343281
0.1015098277104658 -0.2330662187257604 0.0601656185852663
0.0736448265995481 -0.2287169723062422 0.0280231555261730
0.1124793003980119 -0.2329555759431678 0.0405037484800563
0.0912871529878653 -0.2227155401543366 0.0526784818972108
0.0886107187712720 -0.2119387807442918 0.0676205366174956
0.0872778895800812 -0.2323655718083496 0.0269651645307975
0.1339071011522932 -0.2419206890438475 0.0356110843604957
0.0982296202375608 -0.2164398140406671 0.0652807655849244
0.1323698576515022 -0.2339073324517649 0.0425372245886577
0.0976212754152200 -0.2405167828855807 0.0214675298400129
0.0988079233402800 -0.2423660901912833 0.0089943384692247
0.0873725863049759 -0.2406600252878352 0.0167618645404168
0.1266175214247938 -0.2467142481426993 0.0285086122997712
0.0822254383431121 -0.2318056638165583 0.0384454552987240
0.0972269234217791 -0.2264712993411095 0.0673817267158645
0.1211995625990930 -0.2476661134981066 0.0171915917471804
0.1156951794060745 -0.2507779349555953 0.0069273375430744
0.1084536011218839 -0.2445183725932440 0.0182341264955042
0.0113668179682681 -0.2355474361882174 0.0231466007345255
0.0013789258153204 -0.2311710869129535 0.0212108690615051
0.0353455525669547 -0.2266639037718005 0.0116188527573414
0.0324235599464963 -0.2342185254821948 0.0025442941889817
0.0217727907192855 -0.2198492771007128 0.0347128804825288
0.0193289621361404 -0.2268502495109037 0.0255462375127198
0.0391876272742350 -0.2355649605246634 0.0247459957639543
0.0028423711787796 -0.2212727756848199 0.0368036100133079
0.0295657869440700 -0.2319670836361202 0.0211024576385222
0.0341424687735508 -0.2373144553053908 0.0127149401362953
0.0153691151801979 -0.2413326441516133 -0.0037405206333415
0.0245946442743380 -0.2334788025599137 0.0119591078861011
0.0113369939422668 -0.2313720725480317 0.0330712528907332
0.0101019091866571 -0.2470904227188328 0.0051341951914473
0.0243329765425599 -0.2431355827161606 0.0062067716593928
0.0096872028397044 -0.2523797246148490 -0.0132611334299984
0.0123526435284652 -0.2360553154047217 0.0037398675524801
0.0446854796586400 -0.2338113839885526 0.0149974577466887
0.0149172920709588 -0.2386248076302703 0.0134176551431002
0.0350998853162795 -0.2451302005135121 0.0045039721602513
0.0596734677328393 -0.2464532334917826 -0.0003630041120964
0.0668931678081748 -0.2574796330610757 -0.0087779510104998
0.0473379675769842 -0.2495233666209556 -0.0233076940136567
0.0603873939610973 -0.2385747925209724 0.0152956980067020
0.0505218456228411 -0.2421046401531257 0.0206648934614224
0.0417864537151389 -0.2576217869952280 -0.0219338295750117
0.0484260002919815 -0.2422908226220136 -0.0036865326154705
0.0458837741923940 -0.2471724932137415 0.0052859276448993
0.0325425295100709 -0.2495424148127447 -0.0181357289790618
0.0420925309454882 -0.2490018815531733 -0.0152073143968002
0.0522869054974306 -0.2562681680632847 -0.0290395670400430
0.0540008073712148 -0.2570810360420361 -0.0164383718204316
0.0514893849189206 -0.2472539106277890 -0.0122549535162894
0.0377295154044767 -0.2445861841560134 -0.0059444508467534
0.0254781538329247 -0.2475821381840189 -0.0076089362686960
0.0435468331768887 -0.2435957326063818 0.0141210232307665
0.0517365760249389 -0.2398060132148191 0.0096633109648603
0.0541546079140610 -0.2310645258857443 0.0216477801577435
0.0661668330435514 -0.2439939486615856 0.0078932441370006
0.0198377121271265 -0.2545195440570390 -0.0136699620491990
0.0563714908978895 -0.2537908690859957 -0.0063482725126837
0.0690081701776338 -0.2080563238704184 0.0702156622668518
0.0236666163703697 -0.2164963055351733 0.0631040470740685
0.0286464667849196 -0.2292417772017363 0.0364742395655706
0.0591803916825254 -0.2141163700296295 0.0734475417560174
0.0190305041825067 -0.2012857257340663 0.0934581570411845
0.0494772427851232 -0.2204116341457342 0.0565880416268299
0.0212719865454457 -0.2082196485091593 0.0698423177077842
0.0678794287556129 -0.2197114770389695 0.0382787019854611
0.0498761663445934 -0.2258398245715960 0.0319198713321856
0.0311919582888138 -0.2063551570734304 0.0703075289746807
0.0201677356557251 -0.2114500041429817 0.0790355192992878
0.0761757326308723 -0.2130413989318591 0.0581384555916579
0.0142441833965347 -0.2193936443531160 0.0418332034201300
0.0705347466910229 -0.2165058840544730 0.0482660499043577
0.0143073145464645 -0.2153245151997087 0.0698529846951861
0.0467399632016146 -0.2194504623880528 0.0443943688646965
0.0236838141663851 -0.2164090648167789 0.0486875047535443
0.0374736165536405 -0.2227872157788690 0.0459846207620665
0.0015027934853551 -0.2145912142392309 0.0501665152108655
0.0197405119255966 -0.2301613694779122 0.0442735489053480
0.0090464216679168 -0.2250558009975538 0.0484221362302186
0.0685673405962273 -0.2177896777576578 0.0630709576437604
0.0486420612102758 -0.2294418920623328 0.0424989105114589
0.0144361891697695 -0.2175296971514382 0.0561866145907244
0.0403205048750445 -0.2051699785803084 0.0792172934723616
0.0324823372240172 -0.2057624861917617 0.0897005474586379
0.0391397346777365 -0.2284685294619063 0.0317439748868640
0.0447489373490005 -0.2115927023111852 0.0684238260769474
0.0600578058197396 -0.2123414050953097 0.0537871955061506
0.0637011262515511 -0.2215747711597859 0.0536842264236789
0.0298840550171644 -0.2086825195696361 0.0801161504311898
0.0593151440335825 -0.2219425645315322 0.0442607049817416
0.0365187034875470 -0.2176929129433688 0.0593140011420752
0.0546619428965143 -0.2127341243865972 0.0636609073551735
0.0833534178374616 -0.2212149780285911 0.0602191712158964
0.0512357718510991 -0.2372511064618406 0.0320892369688939
0.0609084436416387 -0.2277099216180514 0.0318088475857573
0.0664010713791530 -0.2359079912470838 0.0244540686189340
0.0705817685130397 -0.2293389229798611 0.0416551300386039
0.0747387370422974 -0.2227029683477558 0.0553770120162797
0.0781305124956819 -0.2178872589230234 0.0713563768379974
0.0359998307432101 -0.1760532391518167 0.1465288139956317
0.0683836071805697 -0.1562678279170027 0.1771156384430063
0.0442436704559416 -0.1594039766365764 0.1724473075993170
0.0580512148732635 -0.1469458605490043 0.1773653330256597
0.0403162598494458 -0.1626336791895376 0.1637610056030256
0.0623341191619503 -0.1551881764063927 0.1849337782809524
0.0381478136961669 -0.1343043375862050 0.1983278136662341
0.0507413896390626 -0.1410948546888281 0.1821019108193593
0.0558584958813047 -0.1342738604793423 0.1906501950602871
0.0365581060328480 -0.1491211640513273 0.1782659315334516
0.0534262050600433 -0.1558115965119496 0.1800108547481496
0.0524845713047970 -0.1646973602879760 0.1458389429124332
0.0408958691138876 -0.1375844362122997 0.1875068080278334
0.0586051362904925 -0.1615751983835160 0.1717108500813426
0.0401589762086723 -0.1710909674971180 0.1539541256954801
0.0539437716426575 -0.1494745352207189 0.1896751453343019
0.0525681656550489 -0.1575256616559491 0.1641733173201534
0.0476158534834856 -0.1492589096896655 0.1715254839635314
0.0460985289489656 -0.1630768489773638 0.1551613456676725
0.0988965246438021 -0.2019130643247913 0.0959829676511362
0.1017627876974259 -0.1884425640553274 0.1178002222923982
0.1060283853432872 -0.1955893911912182 0.1114686033416787
0.1172516887922752 -0.2225067719723273 0.0964562335819893
0.1228860350767010 -0.2188882141898416 0.0884329175067713
0.0981888026837270 -0.2088979274070690 0.0868047869194434
0.1110477471499484 -0.2081366528163636 0.0996585067387741
0.1085330592933475 -0.2174970431083710 0.0893531084404035
0.1226004210466737 -0.2304552558655165 0.0635520605449497
0.1157118329680388 -0.2103943533540260 0.1172829822502146
0.1123322483573996 -0.2007402399446296 0.1062552765191987
0.1143978342750169 -0.2077603693934199 0.0817442810185177
0.1384522174068090 -0.2394417573644051 0.0590947836662844
0.1217580555823516 -0.2234291942655691 0.0751281365058732
0.1426249687235494 -0.2299804660793202 0.0748597202718612
0.1222861803055574 -0.2151436118011168 0.1019329696852110
0.1018507359200867 -0.2128902107124582 0.0968456874689702
0.1296367142467820 -0.2244639464669618 0.0684917464865270
0.1299445330260951 -0.2313998284846388 0.0836695633977566
0.1149131150746165 -0.2225713725541952 0.0828479876741872
0.1329778759334125 -0.2341645918877289 0.0693762356664058
0.1007587847199215 -0.2136153481621693 0.0771507279334522
0.1088174760084622 -0.2195587105408204 0.0736005803711921
0.1123191867401726 -0.1896500561445453 0.1326203685852323
0.1098696981228959 -0.2010175271936748 0.1207845841351148
0.0865821407691306 -0.2085133716265482 0.0798316248692648
0.0494581945933340 -0.1961383056551769 0.1090602588186665
0.0737905724784378 -0.2100654182935296 0.0802868222296208
0.0577866082776094 -0.1891324351385260 0.1042655568283074
0.0806581531226993 -0.1916150131861108 0.1157952640480755
0.0605193162950886 -0.1977980562408747 0.1006995176317547
0.0717654775742237 -0.2066495876950858 0.0929946873232515
0.0890741884892048 -0.2007166201868111 0.1230205153107325
0.0346359802111056 -0.1835165383884332 0.1407267347766511
0.0932507494443031 -0.1935551531549452 0.1147771109852419
0.0510279832903819 -0.1852018679745337 0.1164191739642784
0.0778743959512252 -0.2009554300884421 0.0864995804635759
0.0637527196395973 -0.1910041104637296 0.1170163075651663
0.0395550941055506 -0.1803659130430997 0.1229545541437368
0.0871420487609219 -0.1855021763239412 0.1234256431383855
0.0828057006884151 -0.2012895353724241 0.0956078815431049
0.0747994735624024 -0.1933604806348599 0.1269385650915490
0.0426063967365549 -0.1831617522105086 0.1327242084421858
0.0520097815186007 -0.2070095985199011 0.0837757978845350
0.0562237857764158 -0.2031129371372935 0.0936660544487120
0.0426616909161486 -0.2016420901907391 0.0895111540088484
0.0871350825650676 -0.1975827572502520 0.1054937842348729
0.0394987114578547 -0.1931990608152980 0.1136594719378637
0.0997099368566047 -0.2021868684759093 0.1066118586694920
0.0696316447065960 -0.1938533389915534 0.1025028915835429
0.0757024667000191 -0.2010233504980218 0.1107759022414143
0.0513156654098034 -0.1768209357043253 0.1328861724957989
0.0998781051784005 -0.2002562526029694 0.1174865257853332
0.0477471227366156 -0.1974471341247132 0.0982082318393519
0.0288429352773736 -0.1885116273564144 0.1144190049796055
0.0643868611559612 -0.1791201068766830 0.1262891850217537
0.0644912452469659 -0.1969827936322983 0.0913410865823313
0.0348174278437487 -0.1985907875597348 0.0998655333718198
0.0606471024502913 -0.1831883108322033 0.1360808263758679
0.0326796764909529 -0.1895444747386282 0.1249131436469042
0.0634526289838103 -0.2035976319832202 0.0799846634844395
0.0920894628260250 -0.2061457358105598 0.1108638504640752
0.0239388422427395 -0.1927912662407945 0.1029350134201314
0.0894331652693229 -0.2033182766447808 0.0877674281090629
0.0573551395218822 -0.1864819064627658 0.1244056998176408
0.0313308468186594 -0.1967593311309088 0.1088736953859429
0.0917081724498111 -0.2136426687115354 0.0986904232086434
0.0932984243471811 -0.2203133454761021 0.0802548212674150
0.1047593403828876 -0.2093701592932250 0.1111128919658673
0.0757194468024139 -0.1724695123486026 0.1703902117328970
0.0552320824884666 -0.1671996940316165 0.1574063111285387
0.0666169146038269 -0.1698100582344041 0.1535990674005300
0.0937723433588955 -0.1923478787593478 0.1435340028591336
0.0838717463477473 -0.1883715415116564 0.1498430905201368
0.0911950685864159 -0.1811134185123117 0.1526173780191214
0.0846523956706726 -0.1766283856970393 0.1466826145384780
0.0958194253187749 -0.1819222047356798 0.1406378069326983
0.0883028999919589 -0.1943558302909516 0.1315007702952701
0.0837945739592987 -0.1839275439438383 0.1359084130284734
0.0806432411096986 -0.1691766786457117 0.1577914111431106
0.0988622378985816 -0.2005750649101150 0.1269339935255196
0.0582773985449086 -0.1763393429924900 0.1488570472663192
0.0455797650514389 -0.1766632710997161 0.1437669350330126
0.0626766600737247 -0.1702897461270604 0.1383036959342587
0.0697229671803737 -0.1661093211101994 0.1764201073256761
0.0729784664273577 -0.1796606945596596 0.1504825655302019
0.0710650483504335 -0.1844521855691171 0.1385705883129275
0.0668547448841660 -0.1626466319599542 0.1651705717954241
0.0889951657049824 -0.1821694502651032 0.1627546079956962
0.1004455236000973 -0.1911892588879203 0.1341635986605856
0.0822933587526916 -0.1793307798778712 0.1562921551790877
0.0729334038479251 -0.1746860687920004 0.1592296040465979
0.0461513196519242 -0.0952027537154519 0.2152329206089054
0.0517861013235908 -0.0982169940075749 0.2236881408270913
0.0402071953456015 -0.1063839334488833 0.2046178531354480
0.0430606144756189 -0.1185702046279215 0.2100320023227910
0.0487946644382096 -0.1418363191600727 0.1965193239143653
0.0512200979104269 -0.1056197199943019 0.2138048504587689
0.0451431804956312 -0.1165633959878249 0.2007092730271210
0.0580493644774897 -0.1448074016919420 0.1971943918313734
0.0554120062657666 -0.1170770440852711 0.2117661497032768
0.0456616178527272 -0.1257987757182903 0.1972466383002811
0.0602721251890703 -0.1389679335936496 0.2057437645404030
0.0451847599771367 -0.1110761561674167 0.2231877720404927
0.0509841180258617 -0.1277392966509605 0.2073156213268454
0.0654077353890504 -0.1495927428566220 0.1926770315134646
0.0062809507605602 -0.2056906472970140 0.0834174741852782
0.0120308923574436 -0.2200816106171356 0.0804167853210280
0.0175386498015790 -0.2098817393012770 0.0882317686014777
0.0006872043363480 -0.2142910147366336 0.0606186390094178
0.0066136954594144 -0.2219461564762696 0.0636130147586751
