ply
format ascii 1.0
comment object: PointCloud
element vertex 818
property double x
property double y
property double z
end_header
-0.1837086006738189 -0.2118666973835103 0.0449344318423360
-0.1834377493887390 -0.2469594524934736 0.0373778846361903
-0.1382352664155861 -0.2706514049774014 0.0433669563977797
-0.1305154956718524 -0.2357704433535155 0.0528634504773627
-0.1431084512474050 -0.2410269947598930 0.0474690296574520
-0.1633969435043421 -0.2078611530780695 0.0520999756895698
-0.1390630938395333 -0.2490135438370513 0.0450873711769939
-0.1995772785300717 -0.2410194597993306 0.0333145044172433
-0.1888615463724637 -0.2518488273081225 0.0271818611098030
-0.1762507716334190 -0.2278013061446839 0.0409533252468272
-0.1723806529705181 -0.2459727799549683 0.0400116588241138
-0.1428164206137174 -0.2639442718389757 0.0399778533253741
-0.1327425856369905 -0.2470845939330839 0.0520506929745402
-0.1607740644620967 -0.2245514980188908 0.0470519594079456
-0.1662986160873953 -0.2498358727762638 0.0364830571575125
-0.1915491853460290 -0.2463481024500076 0.0346726301467154
-0.1731346581457124 -0.2202954671866467 0.0452651555167498
-0.1502672747244075 -0.2691418672701422 0.0374450883385034
-0.1394173388097562 -0.2296522590244516 0.0520551732213611
-0.1737319565059674 -0.2110276693425109 0.0482135652200476
-0.1482006590544897 -0.2347782723302755 0.0482251731322653
-0.1797584994227863 -0.2502201557649448 0.0310112502561505
-0.1827498787660483 -0.2332995872318056 0.0437418715976535
-0.1319769725495786 -0.2612644732973470 0.0490485203093916
-0.1473870869613362 -0.2534946052482527 0.0450531583830891
-0.1527194970922943 -0.2465432986580896 0.0468762115440174
-0.1591052743451139 -0.2485991210061208 0.0402983946206495
-0.1364903121026485 -0.2578110175887871 0.0430663725656159
-0.1880406938782264 -0.2381785760197334 0.0392691597373455
-0.1551628607903308 -0.2373949401212466 0.0455284718412669
-0.1423846877382517 -0.2717295152805690 0.0361745310696207
-0.1646327788603626 -0.2421014394065708 0.0452262588284409
-0.1503527048853782 -0.2594882590804547 0.0381965479189126
-0.1617678646659988 -0.2344495851316899 0.0495435875830978
-0.1598823935209521 -0.2601175301112042 0.0344048335753770
-0.1873946219218985 -0.2300271742243253 0.0365824371779027
-0.1800181500908140 -0.2398348418103760 0.0350418432142712
-0.1946496179698627 -0.2348686918570240 0.0335425897099422
-0.1790077526089164 -0.1936860594320013 0.0530267758387417
-0.1644581510581400 -0.1641241690224024 0.0702555649883985
-0.1818471090316430 -0.1895756366214356 0.0598151643626912
-0.1731519681902475 -0.1855676485450015 0.0586608898635688
-0.1752015792870043 -0.1758766710238763 0.0608454174839087
-0.1844767084441197 -0.1801300544375444 0.0574381897766368
-0.1693667705693604 -0.1689438963637450 0.0663052091778874
-0.1571047423158039 -0.1607222361522825 0.0699898048928877
-0.1197628014779723 -0.2233157644866616 0.0594384163345726
-0.1181548001644454 -0.2148360827878335 0.0611857125947120
-0.1577239327912064 -0.1887469946071574 0.0643888854240515
-0.1236634672782882 -0.2321734160991050 0.0552064159170951
-0.0969355366304725 -0.1990582826653904 0.0734738077388627
-0.1682405994366598 -0.1983534583814344 0.0544087283353974
-0.1432250394885390 -0.2189630010526033 0.0549280296714528
-0.1582127888136382 -0.1802895104948508 0.0631448023409290
-0.1738954855149292 -0.1955388451400140 0.0591985194820733
-0.1406456392052143 -0.1953254224732743 0.0668672765063239
-0.1324267282361191 -0.1966497427040071 0.0627823096436040
-0.1070915434068458 -0.2065561793676996 0.0699454097198442
-0.1369258124583954 -0.2071567360892790 0.0596595776094574
-0.1236701876485195 -0.1716746068010655 0.0755495875500050
-0.1601064058619956 -0.1979496252248077 0.0618343301458244
-0.1522744253001574 -0.2067722494530152 0.0549976771447591
-0.1361401400840809 -0.1665109186924297 0.0753575478794559
-0.1669567032511063 -0.1796639051205911 0.0618709867107224
-0.1177354897915285 -0.2056935282070993 0.0677708608310599
-0.1365169899359910 -0.2237853758125219 0.0592974922072980
-0.1330149642789411 -0.1724794220481600 0.0695401510301386
-0.1276610693280011 -0.1782935605361531 0.0691902844829451
-0.1639579925948647 -0.1894125149076394 0.0585134490136457
-0.1154258207315784 -0.1895890773618982 0.0679822470219723
-0.1320940699096695 -0.2281377319514147 0.0544502724422818
-0.1262628250247240 -0.2177026261628594 0.0588706468738187
-0.0998803825010723 -0.2038668093896808 0.0667915196055346
-0.1148329007943528 -0.1811299640689295 0.0699893975977222
-0.1424352941625693 -0.1850302225740799 0.0649120560641795
-0.1242709480176816 -0.1982954188203458 0.0642783047866091
-0.1269249851400904 -0.2085857311775539 0.0628537899451552
-0.1347651116052393 -0.2037246633769096 0.0670709240890907
-0.1590257499640435 -0.2010128921647864 0.0544356098163222
-0.1032879156797183 -0.1885282771032658 0.0719191620920207
-0.1304360731145734 -0.1881598786260406 0.0663510298840100
-0.1589401161554899 -0.1712994879536090 0.0675134502864431
-0.1546863254466564 -0.2179105503448643 0.0564028454658502
-0.1148728157205751 -0.1978227527807440 0.0662433003127263
-0.1274220888896242 -0.2261179552255332 0.0605071588489330
-0.1338673312366117 -0.1815918367866447 0.0729716127997597
-0.1504301927906210 -0.1923063470587560 0.0620416433850810
-0.1073936545958804 -0.2126206007349131 0.0637355839785355
-0.1156416871693113 -0.2305947400374965 0.0570830283922914
-0.1496547027954449 -0.1806422281082029 0.0640386115816926
-0.1488097689745453 -0.1724018323191258 0.0679883564494553
-0.1435461917265623 -0.2011680716228547 0.0589757290265264
-0.1435455807838140 -0.2122552569714294 0.0616826126966631
-0.1062936521775654 -0.1970142718771597 0.0679610676733645
-0.1516656208514759 -0.2013804760516806 0.0623530205391315
-0.1345921129836789 -0.2153735087587552 0.0619524457438292
-0.1408170086461126 -0.1759457075544343 0.0664218992428128
-0.1496894247083066 -0.1647538473483174 0.0703561668942853
-0.1120783635898486 -0.2228789404216268 0.0608822776963895
-0.1228967341291711 -0.1818687974992076 0.0745175016005427
-0.0575250454706868 -0.1329471496338797 0.0863372073043297
-0.0745664788441981 -0.1204232305888851 0.0812197471969819
-0.0707557234516737 -0.1314037046040899 0.0861400764442114
-0.0624268427878844 -0.1226700743695515 0.0810006223979248
-0.0601452770943562 -0.1117851110706643 0.0803664638251889
-0.0530650615843018 -0.1171774954147473 0.0861451676337806
-0.2177141322512857 -0.2508386334738076 0.0189070488792383
-0.2312686608007677 -0.2391094491205605 0.0250743122757494
-0.2260560463603722 -0.2488957337104207 0.0163816152053468
-0.2224714925204061 -0.2400429696399637 0.0216540511231801
-0.2433282124451583 -0.2428679689081052 0.0196055600881285
-0.2321736197466878 -0.2432477716499653 0.0169856339358332
-0.2421897206337003 -0.2498142861324905 0.0105006803102062
-0.2266788006684731 -0.2624042888180930 0.0089828948758450
-0.2367947906948328 -0.2500716966771078 0.0179028626486146
-0.2309096810242455 -0.2541935237523084 0.0122834112497470
-0.2169424606482866 -0.2608626766165481 0.0133289379396719
-0.2047299696692381 -0.2700115442723480 0.0154529822279300
-0.1837039167794152 -0.2579950131798169 0.0266898485498383
-0.2023443400609160 -0.2611007406408025 0.0258007232034783
-0.1997333234903668 -0.2530353799491135 0.0229797968869921
-0.1599650744395554 -0.3042745373063279 0.0211767011891746
-0.1432293160877772 -0.2799939414844126 0.0328742183433015
-0.1782557839095499 -0.2947894474913799 0.0242703116189856
-0.1523933554884932 -0.2994767020801327 0.0244747737920838
-0.1756564261631141 -0.3092601356038341 0.0206060806622619
-0.2118604861322360 -0.2787549495908592 0.0142180632860319
-0.1512776722063051 -0.2758994031853026 0.0326402272707024
-0.1577687352594151 -0.2805985711576473 0.0299958634084750
-0.1931888029467805 -0.2597069765843463 0.0229875354951373
-0.2081042573799974 -0.2530772295273720 0.0257129510953062
-0.1802264815679845 -0.2626298285160072 0.0321078924893499
-0.1713426612411556 -0.2623241534942742 0.0304249488653648
-0.1772343894581828 -0.2796232010599856 0.0213253639245944
-0.1681162725873807 -0.2699748877074500 0.0277960622194277
-0.1810922892661177 -0.2720555550605787 0.0279836216431560
-0.2040314075484521 -0.2809860106838612 0.0163427185170383
-0.1913845362753620 -0.2902865957888224 0.0116973135065441
-0.1974803702822173 -0.2693743309858705 0.0223674286056123
-0.1658385761979250 -0.2776163559556098 0.0276392535806973
-0.1641308893926338 -0.2959125639103389 0.0234420768998725
-0.1760807259018087 -0.3006026695652505 0.0170281962806315
-0.2060052108325240 -0.2595735874176340 0.0177951330773314
-0.1834511901292016 -0.2866395730528426 0.0159928519698449
-0.1887241860778875 -0.2727272866123351 0.0198973870742334
-0.1847190490676122 -0.2973823903389586 0.0131199955197532
-0.1755351540275764 -0.2876556726670577 0.0205038495757130
-0.1656392052143963 -0.2665618560440692 0.0348164053401487
-0.1646534490900134 -0.3110306476884089 0.0172837739970038
-0.1943891527115039 -0.2847179544618548 0.0182802216194819
-0.1855428544517997 -0.2650945752102342 0.0238235088223951
-0.1710881017626971 -0.3021528349652716 0.0250323608736990
-0.1588583516510091 -0.2704093698252830 0.0320683848582931
-0.1957626538334748 -0.2760027543335568 0.0158753473145884
-0.1679388955427907 -0.2851746341662094 0.0250160690670777
-0.1559897718001555 -0.2914500344291693 0.0308896726492387
-0.1475564199264068 -0.2878766302943597 0.0293291212224964
-0.3253557277791849 -0.4228618849365700 -0.0350917368720495
-0.3517135798572175 -0.4248381829035308 -0.0345048245385155
-0.3416807289565225 -0.3915070812082919 -0.0317008009713990
-0.3363915939369023 -0.3974967639126300 -0.0303662983615279
-0.3416384211712026 -0.4254383323299446 -0.0345312987242752
-0.3307535596961068 -0.4160376544380535 -0.0328831788369432
-0.3480645715573057 -0.4047715646880182 -0.0323247771649965
-0.3283669118498709 -0.3993474113210236 -0.0293981577530544
-0.3388847494689252 -0.4167088768708530 -0.0331652307390753
-0.3249519455344539 -0.4106761227027597 -0.0332053493128803
-0.3131319343592928 -0.4094501642545034 -0.0327738200849974
-0.3505222414980316 -0.4147298296615249 -0.0336069423460965
-0.3368534666546175 -0.4057753436234759 -0.0311961622613028
-0.3177096265485171 -0.4172352040485138 -0.0350143507905981
-0.3039932999945269 -0.4127683979681061 -0.0340722770727187
-0.1888541641475884 -0.3659638703732223 -0.0123363596212664
-0.1376691261354943 -0.3384146290241080 0.0113056992048835
-0.1682102559468276 -0.3508685951244222 0.0070800118624717
-0.1705676803649364 -0.3403835956780891 0.0048718611225309
-0.1566042783811544 -0.3293743055299227 0.0121718123743908
-0.1865453605898652 -0.3576632967234376 -0.0046128213972515
-0.1590552788635446 -0.3494261592956847 0.0029681635188266
-0.1648878474577781 -0.3313874637093642 0.0098887193239918
-0.1776447393374580 -0.3604976637803863 0.0010005205741338
-0.1668649600150699 -0.3569024693542207 -0.0014707428427421
-0.1778981787542113 -0.3459565136042948 0.0024551752578369
-0.1520436925888826 -0.3372911053099834 0.0160358216098087
-0.1812779140378097 -0.3647411702862902 -0.0060505733315857
-0.1640821157965611 -0.3399130679381063 0.0120406633310890
-0.1585530839244416 -0.3465564593831259 0.0110093919719577
-0.1741483139889342 -0.3527628231155279 0.0012884782561657
-0.1503815210183397 -0.3433929978324259 0.0083931314761522
-0.1443775829832079 -0.3304061878318023 0.0143394372453610
-0.1922603227050508 -0.3759372052678537 -0.0104970146537168
-0.0464292050998445 -0.1876289693777674 0.0798642688860859
-0.0277398554865840 -0.1671039404534467 0.0810150813763013
-0.0326489841167613 -0.1939279927603283 0.0779322642683770
-0.0398356054888114 -0.1989342612874854 0.0823000976235596
-0.0672508467284652 -0.1811759884226348 0.0786833165536210
-0.0330494570882723 -0.1843769211285639 0.0823218879149160
-0.0740454465036891 -0.1886317300753113 0.0739847595240243
-0.0426394254083452 -0.2139469574414735 0.0766667981890639
-0.0467050457507022 -0.2071946145396736 0.0801727949739777
-0.0504045077392445 -0.1500478444539762 0.0825727817368848
-0.0561616249040628 -0.2037112226364469 0.0779656624719507
-0.0627721272644656 -0.1750406976966185 0.0742287293281794
-0.0408409117811399 -0.1762483278624258 0.0788570279417212
-0.0499259359197424 -0.1732866810662478 0.0767604760771366
-0.0471976692534152 -0.1700195628959194 0.0837751170655402
-0.0589608627529844 -0.1530029745275057 0.0775231362745984
-0.0395849153144255 -0.1659645322278663 0.0780709482722412
-0.0664995907956383 -0.1672192049852927 0.0801157736508029
-0.0282536583379047 -0.1562808860197206 0.0772581907694184
-0.0380174398698691 -0.2071962437203358 0.0776978659006123
-0.0746576111374862 -0.1984220876168268 0.0756996758185042
-0.0281361536826483 -0.1752797799587867 0.0804491447437923
-0.0551372775627457 -0.1777982896148641 0.0814062883827964
-0.0851144053936062 -0.1869151846001697 0.0757442746391297
-0.0541938801355783 -0.1851735904723478 0.0747563802151282
-0.0461825878771139 -0.1589849186236986 0.0827568791517060
-0.0353087233714875 -0.1721690631320233 0.0848605586816874
-0.0576128175788593 -0.1923713106376587 0.0790409217089596
-0.0635920124326849 -0.1856462565119495 0.0727915883365938
-0.0622126055308138 -0.2012202054040431 0.0733789079652934
-0.0493010433120224 -0.1993393163296086 0.0755253534876558
-0.0406190377397154 -0.1925311739901306 0.0761668433733713
-0.0661268138953836 -0.1930529190971793 0.0769378531217265
-0.0329924357650976 -0.1629963687090397 0.0852030939159012
-0.0458737563178480 -0.1409612929585029 0.0788790218806600
-0.0548767104805955 -0.1662278485523838 0.0778070210049754
-0.0580943422883115 -0.1436502556413561 0.0835957035451226
-0.0740551197638706 -0.1782707520068832 0.0747626932901940
-0.0198396529845189 -0.1650525983522364 0.0801782934587124
-0.0382351391358469 -0.1503830483752104 0.0790435691275356
-0.0662677380226583 -0.1576579509743899 0.0824245262966305
-0.1250485763124768 -0.2601705803065150 0.0446643951475872
-0.1042737736278925 -0.2763606649602695 0.0413188726578937
-0.1293208989513422 -0.2826831078148486 0.0330279722682904
-0.0966022673612746 -0.2983385157400488 0.0386724723198387
-0.1158102055440508 -0.2934022001575722 0.0287194003596925
-0.1298679981824452 -0.2671317638044422 0.0402436134208848
-0.1131963888192385 -0.2714279132104913 0.0403362730710437
-0.1102895232228248 -0.2614537637255288 0.0463013144178670
-0.1108259309558326 -0.2878752047612804 0.0326964340035460
-0.1022246716500926 -0.2860027670615307 0.0378354807546670
-0.0959556862859899 -0.2760595720091488 0.0445784558676596
-0.1020216350100741 -0.2532355655229733 0.0519382795088533
-0.1005936581597131 -0.2623802584033265 0.0528962377381881
-0.1000064403548050 -0.3037918925351705 0.0281943968913196
-0.1007752099797497 -0.2688200022655792 0.0468022874714734
-0.0805020931153116 -0.2706145447649206 0.0527103074951220
-0.0908638857740708 -0.2680834089587116 0.0498174935819191
-0.0924232153153164 -0.2843344860635049 0.0417962225918995
-0.1180057301338601 -0.2604460136622071 0.0510245128049782
-0.1088375159576973 -0.2586903678511742 0.0544683970771481
-0.1088193913228310 -0.2997908284765505 0.0262666688728488
-0.1168122534750550 -0.2820466072949109 0.0344777394100075
-0.0845136450244440 -0.2894575464793787 0.0475842941892981
-0.0938871359640358 -0.2985711831033599 0.0307285874112701
-0.0930982052283971 -0.2582411212835906 0.0548689718724504
-0.1233380384410268 -0.2535192466057675 0.0534969981073503
-0.0893914119268752 -0.2782865601504955 0.0502154209586455
-0.0858774728862335 -0.2942652586133380 0.0363492606956351
-0.1123173440282255 -0.2506749008172631 0.0512578929348289
-0.0719063322943063 -0.2761084474290128 0.0536717277333646
-0.1250014318970663 -0.2756484075395425 0.0433048438850358
-0.0858138330166189 -0.2624780092430545 0.0547076829868991
-0.0737952654482601 -0.2784771742879652 0.0457797729584012
-0.0798140697569338 -0.2821695086111107 0.0531880647242930
-0.1187548477670678 -0.2667203956872532 0.0453272680294929
-0.0914218801508519 -0.2924552388977064 0.0421422198350200
-0.1062560791985449 -0.2950899294997523 0.0337252615916840
-0.0600735931452223 -0.2493058799421131 0.0662459477313027
-0.0485827782876038 -0.2200698256649411 0.0753994992815059
-0.0964124678141359 -0.2123413998989398 0.0663428839806993
-0.1037417443179142 -0.2322123127874134 0.0598795169988456
-0.0739226470112807 -0.2286171183612478 0.0667656563625232
-0.0616517600878739 -0.2416976062499442 0.0684824054852476
-0.0522367250413977 -0.2475514560165768 0.0703404860304126
-0.0802694257520005 -0.2469497792332922 0.0642611983896567
-0.0780879528454022 -0.2596704218432396 0.0565003926579955
-0.0920518639481411 -0.2312643332896339 0.0617310808213616
-0.0854613190508495 -0.2533165154371231 0.0577817432487644
-0.0692481203964509 -0.2047872964637869 0.0771502575505523
-0.0675191524187605 -0.2613133487172110 0.0605969674329331
-0.0502610380171853 -0.2360669542340240 0.0705095135241087
-0.0586462272376096 -0.2583775651640444 0.0652556095363072
-0.1010240673258908 -0.2437021094071181 0.0591883371029349
-0.0900748532146407 -0.2451160345742683 0.0592610392899831
-0.0549748686154891 -0.2120807309929983 0.0780424376106538
-0.0599280869473354 -0.2662230882901366 0.0615807889052797
-0.0570485101270124 -0.2253123253881076 0.0737760207516887
-0.0956590735816900 -0.2379702445425629 0.0597907266527592
-0.0838010821323429 -0.2277336951472053 0.0682333444915238
-0.0854675303021239 -0.1960282102814027 0.0713713500943779
-0.0695292558844605 -0.2711103248051664 0.0601010855688959
-0.0685431942887035 -0.2510216108269236 0.0629334161500166
-0.0615312007188759 -0.2168823336994746 0.0751339428335779
-0.0844901237286345 -0.2129193517388321 0.0732102877667624
-0.0870312382663990 -0.2055420144055208 0.0684145908401863
-0.0442608674623347 -0.2305920926189205 0.0761745819815164
-0.0774125556371560 -0.2070298636452152 0.0710866507736699
-0.1063992434492300 -0.2500389094162823 0.0588234006346168
-0.0717938170048277 -0.2410783139507503 0.0649977916965248
-0.0961185025284119 -0.2496050382411975 0.0561038908143481
-0.0781325516660281 -0.2192208188923861 0.0702402914196909
-0.0631340090190423 -0.2321475528560936 0.0696205918253311
-0.0697757712833997 -0.2131197409602746 0.0747576021006248
-0.0892432583104123 -0.2198509045134667 0.0710017297316561
-0.1039251289661957 -0.2211436593688706 0.0645858126365871
-0.0761478023243825 -0.2542775283801997 0.0632048783778452
-0.0397274686223622 -0.2217729303996201 0.0796245756811693
-0.0950717539529905 -0.2226767183719393 0.0642648640461469
-0.1111141941092391 -0.2401075259237008 0.0558149148944024
-0.0817971899179173 -0.2362443312786140 0.0633616870165756
-0.0672235579523744 -0.2231269831774368 0.0732115096522590
-0.0197235738623418 -0.1366626997814606 0.0838419134726877
-0.0098186645555200 -0.1431946959987067 0.0800815608568981
-0.0495514280150342 -0.1299696183262459 0.0796818006519268
-0.0330990452746760 -0.1544798267977308 0.0844811632349928
-0.0331054601735331 -0.1255195113476250 0.0828334506428263
-0.0173403880250130 -0.1527237736915324 0.0818091033015091
-0.0279541945674461 -0.1468114770686457 0.0850261241664764
-0.0368132717129689 -0.1416060412055427 0.0797616305043710
-0.0468272343003623 -0.1231765459078926 0.0850075922364450
-0.0279535836246978 -0.1390079053446034 0.0775141757809567
-0.0409597401456843 -0.1319372612709390 0.0789543714862837
-0.0508196433367147 -0.1375263691799747 0.0842121447781578
-0.0432908940256163 -0.1459922028431747 0.0846727956103764
-0.0406841031424094 -0.1233616615606277 0.0787550005027546
-0.0179593748528328 -0.1445436575869542 0.0819854621081852
-0.0347777122994230 -0.1342234090350795 0.0840691841750555
-0.0265052420160601 -0.1327422801656163 0.0846416375302130
-0.1381482070739533 -0.2867746932240084 0.0304072315256641
-0.1413291823167712 -0.2944316386884586 0.0271303382713629
-0.1494592011159887 -0.3235769679675079 0.0155075597801115
-0.1279864981652625 -0.3002874231071274 0.0241743936075024
-0.1324885352774889 -0.3073651948461887 0.0219605407352441
-0.1240174067771370 -0.3089327721145364 0.0204678039535633
-0.1430335089369469 -0.3190046724392270 0.0185376321640992
-0.1361861644377863 -0.2802936089024540 0.0398837681421358
-0.1411115848745849 -0.3071636855630409 0.0221016685101012
-0.1326729381636842 -0.2930617013991861 0.0327711726664214
-0.1534866375365770 -0.3110001005509939 0.0196216482471671
-0.1362274030732965 -0.3000270596725600 0.0248378774321567
-0.1312908838432371 -0.3151783380066210 0.0230983197801624
-0.1104688349194510 -0.3138033095277794 0.0161178915856637
-0.1563719164892174 -0.3198616214675098 0.0157794293031049
-0.1073270618363157 -0.3087115090158602 0.0242411900146503
-0.1221993429819861 -0.3171948563711782 0.0158655722306156
-0.1161399109805503 -0.3047347808433809 0.0229628941376229
-0.1249807616674154 -0.2918014283332335 0.0281328953213241
-0.1258343505105826 -0.3291446928803531 0.0137289017922260
-0.1345043408755064 -0.3245038699404711 0.0166373965693019
-0.1319520257206896 -0.3345112139814247 0.0150913041209361
0.4219005665221195 0.1333153444635222 -0.0179602912669553
0.4326231208737501 0.1297307397116606 -0.0166679437067169
0.4249025355396853 0.1421660720581515 -0.0237434753223678
0.4168499028219192 0.1498112059628013 -0.0263155442927125
0.4402713094921411 0.1508917600369622 -0.0296663616195583
0.4170127190643411 0.1406951255678267 -0.0224947083448415
0.4074803830101913 0.1434708421209389 -0.0247281113850454
0.4420176893381580 0.1415577767284272 -0.0245533817590315
0.4278974787156456 0.1469581033282379 -0.0295482460215536
0.4327518261460586 0.1411686061977599 -0.0227431583958171
0.4033391075908364 0.1495161206153724 -0.0212485887858917
0.4519280971297146 0.1502437534285979 -0.0329467168827665
0.3971847758158313 0.1460317104742316 -0.0254084979590694
0.2619964845336025 0.1302351747741739 -0.0206130046800760
0.2079018825946230 0.0835257506004425 -0.0216888748598332
0.2310615002971982 0.0983724739744753 -0.0188013557837823
0.2068565595522808 0.0926809313313079 -0.0208256127564846
0.2081559329541246 0.0689362341234434 -0.0218446652606498
0.1767554103435153 0.0764029727455895 -0.0262351034975200
0.2501352347229311 0.1266143207525799 -0.0207437464282123
0.2154330756767146 0.1079084756851152 -0.0183081213383210
0.2279965023527660 0.1191056307283838 -0.0184144253765253
0.2320383977517307 0.0815300042893273 -0.0182612823942846
0.2129353380740794 0.0592045270857651 -0.0211701844665261
0.2355829857535788 0.1067570522521513 -0.0196599339927272
0.2114904584743487 0.0998664326416528 -0.0154859731363382
0.1987314282950498 0.0851266242485721 -0.0222755835457844
0.1980320006720371 0.0741455392906190 -0.0235968490627756
0.1968533902867740 0.0974906799410952 -0.0218120816474071
0.1884763469696604 0.0901554976574164 -0.0252048503763025
0.2154171911652588 0.0779089466201502 -0.0207313239256635
0.2404039349804180 0.0993962103730442 -0.0186368085369067
0.2479196508462194 0.1157833240631256 -0.0185467963053237
0.2161989942355007 0.0937044640822940 -0.0206610655096086
0.2487315937587107 0.1003749406558219 -0.0175627711853944
0.2223142256746145 0.1024517387048778 -0.0198157243935439
0.2307715061393383 0.0706900471062317 -0.0185364102786026
0.1887387468800554 0.0795028962504662 -0.0220918934261287
0.2442272146992825 0.1076922019522167 -0.0183276715062666
0.2395403674056953 0.1228431748149035 -0.0204904088352504
0.2229170225196043 0.1115643570909452 -0.0193448911821869
0.2367769715313408 0.0914073193486842 -0.0181537564705837
0.2251930897283978 0.0599629106839886 -0.0190656903462136
0.2559264628578629 0.1093179206054445 -0.0186616535420042
0.2078684843910492 0.1071694386072545 -0.0215844036498734
0.2239101099569668 0.0884436360766786 -0.0202105970565288
0.2363610213435395 0.1150161836188430 -0.0192212770994475
0.2191159403872614 0.0680784705048297 -0.0207105518722213
0.2242269855957519 0.0773615419176729 -0.0185443525343305
0.2862807460120076 0.1299942596837609 -0.0262245138232161
0.2793530625414455 0.1178134868157282 -0.0191337086388577
0.2697520972519032 0.1239157866333364 -0.0207223634320218
0.3481484743614058 0.1419561114003191 -0.0218996501079969
0.3580302696675836 0.1376192324777165 -0.0236265816098596
0.3525050052757452 0.1297219828656015 -0.0201478736010366
0.3226016996936377 0.0947394010979149 -0.0112997934249832
0.2761731055365414 0.1320877568346039 -0.0213296405238325
0.3454170511575456 0.1232520991610993 -0.0184362156678813
0.3316704320256189 0.1169221213459578 -0.0173668622107727
0.2999290033614579 0.1377636186138982 -0.0239882597168535
0.3098143625003341 0.1409386880768159 -0.0254341575544980
0.3197001289343759 0.1031455660193644 -0.0138455918571518
0.3265921740779538 0.1092590664540248 -0.0150503709568000
0.2908181159798440 0.1132585013319826 -0.0195686998756477
0.3412680371300456 0.1142730735893269 -0.0155189640447465
0.3028167260850916 0.1101773134047205 -0.0194287939862869
0.3416308352987447 0.1319158782747489 -0.0221426016742377
0.2966431496135151 0.1274144521052708 -0.0220328356271264
0.3059405781809434 0.1295452167637600 -0.0226073254581116
0.3309949329935813 0.1257256027013852 -0.0209392481076685
0.3346809542416610 0.1407240435245797 -0.0206396825134185
0.3114990371287727 0.1059469421679049 -0.0173794883609042
0.3277801522520241 0.1007928254956590 -0.0123760708999059
0.3162133768460336 0.1401699184518710 -0.0200026728745238
0.3179543600311072 0.1124310812032010 -0.0176597074347914
0.3351398740694260 0.1083259532297870 -0.0145683371283909
0.3221645701572287 0.1361020579861037 -0.0240593327232391
0.3155758580881820 0.1217548821325978 -0.0206916126470240
0.2992928083128943 0.1192027706253636 -0.0207804029931107
0.2878928202771899 0.1239088626155224 -0.0213803487719414
0.2907322785237078 0.1339749589841040 -0.0208746918239314
0.3241788483983754 0.1202951362593251 -0.0190587663283995
0.3311390136583888 0.0932012509052771 -0.0105805101626508
0.3233521410361335 0.1276596437949218 -0.0220344648077885
0.3324601773515887 0.1335411896328109 -0.0233789461492151
0.3364690818421451 0.1006449773505706 -0.0109542034770283
0.3152826055689977 0.1305929835770953 -0.0230922103526794
0.3079506816466435 0.1172892979376863 -0.0199450406086008
0.4335632599395930 0.1179322133564815 -0.0135977527489242
0.3829624359305613 0.1453594698035185 -0.0273789919699212
0.4049568839883361 0.0924907244890039 -0.0145386045813069
0.3944068191393090 0.1317425741818143 -0.0185284680228747
0.4135116098214138 0.1286831765459079 -0.0169595670452387
0.3806648839017859 0.1218133289888517 -0.0138217650899677
0.4231082985117179 0.1150925514623805 -0.0163013780577366
0.4138048623405980 0.1198448714538273 -0.0145589693395836
0.3708710643513634 0.0800488754198643 -0.0121290463820098
0.3833580213600858 0.0795731546665207 -0.0128018979954718
0.4062659306503613 0.1166671545723338 -0.0133741477030462
0.3876017315135725 0.1268440352259408 -0.0149369392531989
0.3901625998668654 0.1396402310890946 -0.0227834806172045
0.3977140558834423 0.0990982739594563 -0.0140282637388933
0.3605893051926315 0.1238180357936082 -0.0163400710984623
0.3776048753231315 0.0696263957814405 -0.0113509089682577
0.3937438444336115 0.0637593089219281 -0.0092358251736414
0.4050130907211797 0.1249824926718691 -0.0150135107443192
0.3691447437922489 0.1158317921878244 -0.0124801348146998
0.4244750792634575 0.1243475195088023 -0.0154354685358121
0.3946786886623027 0.0776619221022542 -0.0132682509600074
0.3650286188493657 0.0942966712529801 -0.0123738307764959
0.3828895300959307 0.1333705329584520 -0.0195033290015795
0.4003076096737693 0.0694333378729774 -0.0137085370339493
0.3895794550136126 0.1019049449451491 -0.0147003007620238
0.3839955401179375 0.1090267045620878 -0.0135211812578038
0.3817236476845907 0.0987952463562995 -0.0144233400494609
0.4059958939556125 0.1343486522984813 -0.0192157786147128
0.3741225016578186 0.0920612317369484 -0.0137618927006342
0.3982268404968492 0.0883723594227102 -0.0128688980502017
0.3983939333385094 0.1387018230277051 -0.0212610112884401
0.3683001154427235 0.1296203627218009 -0.0179470541740750
0.4093512933530702 0.0861291812985333 -0.0134776006750914
0.4109442247454724 0.0976037043495304 -0.0151299971616618
0.4152521857113219 0.1120070869358805 -0.0166738494866175
0.3871222432799480 0.0698451132853320 -0.0125171986747637
0.3680631714801743 0.0717245768266872 -0.0113987661502079
0.3967548757686106 0.1205798355800331 -0.0141345677770975
0.3762045945440267 0.1281207019223060 -0.0164455605463356
0.4198328307904963 0.1053484219221532 -0.0145836106970984
0.3759509514796907 0.1395239483193348 -0.0236925634266761
0.3880045464322853 0.1170740424427020 -0.0134816736267475
0.3619462090366070 0.1103909397190429 -0.0124206697205319
0.4043820886859767 0.0775833141353059 -0.0134051021356267
0.3956085435252161 0.1093643522543153 -0.0142936165392384
0.3925369270343439 0.0566941633329983 -0.0148324680432395
0.3706325930319434 0.1026097692291051 -0.0080328789022377
0.4195021071160829 0.0972752207985278 -0.0148856200623416
0.3875828941121666 0.0892592446456595 -0.0156930827280121
0.3744126994632614 0.1087053486764819 -0.0126188188185640
0.4068841028878500 0.1085603515975517 -0.0154985992864698
0.3666257250172146 0.1431637415661265 -0.0240729771112845
0.3472497775786557 0.1041672659421055 -0.0114769668219904
0.3605732170335930 0.0859662632323201 -0.0099524610173979
0.3461936612144270 0.0907130847390319 -0.0095089165821317
0.3627194589083726 0.0781435486354976 -0.0112863526845206
0.3539936691057708 0.0943738536868488 -0.0115861219263534
0.3546816924641485 0.1158859624448403 -0.0140331512808797
0.3585703430570812 0.1022560333778390 -0.0119433197865264
0.3516574240362697 0.0839430244975316 -0.0101546830670853
0.2886744196998490 0.0956228243119578 -0.0176263092312180
0.2525751364120605 0.0768377603347968 -0.0154533895230955
0.2464809824977631 0.0912802432570376 -0.0169917433633162
0.2899304161665634 0.0287337575142777 -0.0111552036412188
0.2667829154951628 0.0914948878092739 -0.0169917433633162
0.2421571370204577 0.0468771279581403 -0.0178710936257034
0.2725775038152102 0.0486920352157583 -0.0130028981596622
0.2722404670657311 0.0805932254086001 -0.0157112073628784
0.2918698539210433 0.0672667312399210 -0.0093240045769798
0.2401110897563993 0.0641042879271350 -0.0160551681301715
0.3023025159386054 0.0690667722239972 -0.0106914980952591
0.2581117032447424 0.0962571865322761 -0.0173304092934574
0.2914112395646524 0.0775875907345444 -0.0125795148350900
0.2780180508126175 0.0551556058451948 -0.0130234665655213
0.2945531144715791 0.0574645621386051 -0.0103422424908136
0.2725365706510741 0.1013927712744904 -0.0171440717552262
0.2559185206021350 0.0502369057786275 -0.0161901864775459
0.2537823592827023 0.0586638427535189 -0.0150935442443466
0.3031730075311422 0.0607166103878087 -0.0102239232452261
0.2838302546485743 0.0610731973052336 -0.0122838185449126
0.2508509541525651 0.0431300124352306 -0.0128120803746097
0.2466302561759312 0.0708609074281729 -0.0206174849268969
0.2709398717783907 0.0713677862616797 -0.0143648931932064
0.2814144851980028 0.0424229480278642 -0.0111598875356224
0.2624024559898482 0.1170115226347923 -0.0194169824264864
0.2818078305041169 0.0319754197367601 -0.0075188724033342
0.2620413888256026 0.0740080771722515 -0.0147827780330444
0.2832820353557660 0.1066513591566955 -0.0192927574009986
0.2876602547376702 0.0514239675385754 -0.0110857598154953
0.2699951506419354 0.0568363093457697 -0.0094453785363085
0.2937537977092193 0.0370299527410329 -0.0108464739057443
0.2352962499570431 0.0535679692899446 -0.0174880325225190
0.3103717459343669 0.0661576665041730 -0.0102833883393936
0.2724944156014413 0.1101092951120763 -0.0201996000870593
0.3004958564080894 0.0856886915770088 -0.0125400072040332
0.3022370432407459 0.0469113407520452 -0.0087892260246337
0.2638954982429033 0.0528981723902245 -0.0144027716436015
0.2948991117147000 0.1034626453057323 -0.0183761396309651
0.2548463160788677 0.0871176866652836 -0.0158500950143253
0.2978452812945877 0.0939732788915462 -0.0157409399099623
0.2629600430714638 0.0610972277200001 -0.0138356131255958
0.2938986929643579 0.0453764489207315 -0.0109242672823612
0.2816001099696947 0.0862800841573638 -0.0157621192585701
0.2837510357388780 0.0748827435402352 -0.0141085008865034
0.2990751090469166 0.0768147481579442 -0.0106603400150954
0.2433385984718795 0.0783848710210764 -0.0176030934067822
0.2462319215040392 0.0550028701581197 -0.0169184302335198
0.2628945703736043 0.0830475860761059 -0.0162659433783352
0.2645872890815621 0.1039750226239736 -0.0187351703193834
0.2708430373527851 0.0364322470856123 -0.0122903352675611
0.2518315172635875 0.0668912050972992 -0.0155653956936173
0.2747022608700080 0.0649722339248874 -0.0105735861448367
0.2636854357612792 0.0444250074140449 -0.0139394733928069
0.2790363905502431 0.0958040706606199 -0.0172257344359153
0.2859650922587190 0.0197005616854893 -0.0137028349016319
0.2917308644458050 0.0851533020819148 -0.0146377809541144
0.3816869911196926 0.0345430084602844 -0.0140960783839546
0.3225006904925853 0.0523159439510941 -0.0101557013049992
0.3455229479005844 0.0155826039143612 -0.0102387895187680
0.3314906112100358 0.0079486706267637 -0.0181928568064750
0.3181383556221370 0.0131268177137760 -0.0130511626367780
0.3149460779384756 0.0301527738709970 -0.0121526695016107
0.3294427311177325 0.0064549156071690 -0.0107039205978075
0.3576258255682086 0.0294182170399570 -0.0093358161367799
0.3685195457131548 0.0285311281694247 -0.0104139264399475
0.3700358037906452 0.0393951157672869 -0.0146905256780510
0.3537259743582238 0.0173254199276797 -0.0196717455525277
0.3633829427330270 0.0358382070866814 -0.0090977521125255
0.3428845916420487 0.0353160546844673 -0.0098895339143229
0.3745080065319962 0.0303847284677684 -0.0164600195247120
0.3589202096042746 0.0313502216576660 -0.0168080532436605
0.3577998424276829 0.0397250248513692 -0.0140229689017413
0.3380758612701755 0.0289113382064504 -0.0132489044396446
0.3419079996588903 0.0521342903072661 -0.0097801751623775
0.2989380542237146 0.0252106543324115 -0.0129815151634717
0.3182178800032075 0.0213462378018281 -0.0127436547868001
0.3261181843290640 0.0233975799030384 -0.0135806463519718
0.3106259999414513 0.0515435086696595 -0.0097897465987672
0.3078944749137998 0.0186631808988751 -0.0136203576306113
0.3646377173142448 0.0462435803281527 -0.0131313997843881
0.3248230875264583 0.0435914778577803 -0.0102231086548950
0.3270538431480862 0.0151740868633309 -0.0134983727285340
0.3562798168699112 0.0213488852204041 -0.0100274033278561
0.3164035836883378 0.0591731653580187 -0.0100269960326905
0.3056121964537319 0.0078513270822012 -0.0149344954822057
0.3476310058535952 0.0239885651882277 -0.0143475831486716
0.3400792443656442 0.0094348906857961 -0.0186610425992559
0.3326488568370222 0.0558280501634909 -0.0085977972968329
0.3520648210255947 0.0453829656433801 -0.0115975261909883
0.3282594368380659 0.0333750895731166 -0.0119074778119595
0.3658708034278980 0.0224693542207872 -0.0163624723325667
0.3206380278768085 0.0364460951212404 -0.0115293042507615
0.3214211546563384 0.0048522091307940 -0.0119315082267259
0.3501332237030513 0.0328885754978866 -0.0136252451725977
0.3132436859703362 0.0416387011866291 -0.0110719117798671
0.3378777121721434 0.0429501916196475 -0.0112928694071692
0.3080859036416007 0.0257564298542266 -0.0090629283758723
0.3050549148434905 0.0338119136381514 -0.0082397848463288
0.3349545547691082 0.0171767571922600 -0.0130365000108192
0.3471265707910818 0.0134367693347471 -0.0181240239234998
0.3250680755685268 0.0613424194096511 -0.0098190718506856
0.2976265637906961 0.0154534913468870 -0.0133462479842067
0.3111153650828400 0.0761044253892533 -0.0101715858164550
0.3072472828957669 0.0909438174503071 -0.0127363234738205
0.3126323359268702 0.0979097866664293 -0.0132582722284519
0.3206267254359649 0.0831817898331489 -0.0095203208467666
0.3045520071378478 0.1003116062575810 -0.0160266574685842
0.3154030631142043 0.0892739072716189 -0.0105910998369547
0.3882197001034784 0.0415886038812685 -0.0104534340710043
0.3846317351665010 0.0503900487608682 -0.0088218096378764
0.3784597878755867 0.0422665466842992 -0.0134156918099306
0.3940626547244330 0.0493451330136916 -0.0110759847315225
0.3828547063592777 0.0579095321069507 -0.0132222266063021
0.3466435187247588 0.0764795442367097 -0.0101717894640377
0.3217308008059354 0.0700465207446884 -0.0094922174803448
0.3725472876051172 0.0521346976024316 -0.0081015081376301
0.3597490552661356 0.0568585069322912 -0.0115616842164210
0.3524182514054865 0.0544715536146810 -0.0065751695047927
0.3328317323663468 0.0700231012726704 -0.0087169311327515
0.3366377020406761 0.0626416909877036 -0.0074337477137377
0.3269303308891381 0.0772611436593690 -0.0097445368353929
0.3379106012567602 0.0776374843923219 -0.0097347617514201
0.3692397453896097 0.0627502351493181 -0.0110847415775815
0.3511922929572302 0.0681039264526755 -0.0099667163481915
0.3461788967646763 0.0606164157770874 -0.0093343906037005
0.3415648534819282 0.0688653647646409 -0.0091539588453691
0.3322611118394341 0.0846561983323808 -0.0088195695144660
0.3410819032393967 0.0846407211160908 -0.0049215511327260
0.3587316319426325 0.0492044125339997 -0.0083359065053948
0.3597472224378907 0.0712048681954660 -0.0088134600869830
0.5273361496096969 0.1502606561779676 -0.0449425777456467
0.5387015175563310 0.1472668330637125 -0.0453191221261826
0.4986599225375507 0.1345914002171392 -0.0323805766026747
0.4904778717809364 0.1418860566318472 -0.0315841109064740
0.4876063390401327 0.1521800346455452 -0.0367907686550732
0.4934752587278901 0.1133680637315110 -0.0279699772551106
0.5148513309005934 0.1395035835610582 -0.0376660459658050
0.4986006610909657 0.1055532913904169 -0.0316462234192171
0.5128846043700226 0.1507982857964719 -0.0434858865861156
0.4836177993078526 0.1374654785527277 -0.0278447339917090
0.4845993806567887 0.1170235378421756 -0.0236673111264130
0.4830067547357609 0.1464687381868493 -0.0337507175395299
0.4514252912478631 0.1427081819234769 -0.0247741357387507
0.5066069639836523 0.1432421458854917 -0.0373927509097319
0.4647203218650043 0.1413643115247987 -0.0269108061771403
0.4779957004904090 0.1056712033408386 -0.0236994874444901
0.4900968471535797 0.1306911417119890 -0.0281007190032469
0.4777401227740366 0.1424597318725013 -0.0296064892302249
0.4737027076218928 0.1213402556540843 -0.0216805253089397
0.4610160741582675 0.1548671645001534 -0.0325174277782940
0.5203758825258918 0.1474495049454543 -0.0424436182575149
0.5242990513841035 0.1321321520076470 -0.0400267287452378
0.4710251492036743 0.1022550151399252 -0.0209628712272698
0.4836632127188100 0.1252952953589990 -0.0250484490327376
0.4702614707682985 0.1351557076689862 -0.0236335056276737
0.4763861718200111 0.1524574026532733 -0.0344345661224609
0.5238107044806286 0.1405411679952552 -0.0399719475454739
0.4653350320935864 0.1288831584721852 -0.0206146338607381
0.5088996284704410 0.1215673227088695 -0.0327418474145030
0.5027410200961981 0.1137814683245280 -0.0304294291121856
0.4856045851253259 0.0912000061094275 -0.0289263063037840
0.4713562801732530 0.1103043894963667 -0.0200116333681656
0.4916533256286664 0.0999417822472764 -0.0309428246683408
0.4579809105847104 0.1365686145982224 -0.0230555537877814
0.4862148151070870 0.1043224454001739 -0.0271350221657666
0.4784609333932398 0.1325245808996389 -0.0246458377616076
0.4429008070808266 0.1225550134852885 -0.0170703513302642
0.5085825491840732 0.1326738545778070 -0.0350577277257274
0.5071770753916079 0.1066045202126590 -0.0364227774730135
0.4909021715196309 0.1222143110793196 -0.0272478429266194
0.4574553979973806 0.1170031730838991 -0.0188449363664944
0.4652456308047514 0.1200104369386171 -0.0193858243463235
0.4682045283585625 0.1486891077817561 -0.0315806488975665
0.4985747978479542 0.1221678794304489 -0.0288134855429308
0.4768257451274135 0.0966997127296287 -0.0231241830231738
0.4585804490683759 0.1459726526752292 -0.0303779062737456
0.4982357246226475 0.1432246321933736 -0.0353090288428617
0.4544312313932933 0.1291413836071333 -0.0186496383346210
0.5154223587226713 0.1138075352151221 -0.0355061597029804
0.4619492892062961 0.1090808748191037 -0.0178423793165333
0.4437745570346873 0.1328041890307778 -0.0190286264861501
0.5196239138265253 0.1256891497840701 -0.0363639233215939
0.4987398542137869 0.1506388297391655 -0.0402344492796603
0.5315071575761358 0.1272364641179323 -0.0415135597470184
0.5427308886289556 0.1344954822056563 -0.0442379571092735
0.5337994147677591 0.1386775889653559 -0.0410863071183740
0.4300795625649924 0.0853685575768995 -0.0141647076193470
0.4198217319972355 0.0717494218317845 -0.0133696674562253
0.4130589012449232 0.0518347247130161 -0.0234769006365260
0.4138787864131424 0.0766165990599118 -0.0147459178205639
0.4229831570721077 0.0607856469183668 -0.0230158425091419
0.4267214139251672 0.0928872263326508 -0.0140119719322715
0.4535077914292371 0.0905318383903697 -0.0181429631486971
0.4382551984227495 0.0849812198744767 -0.0144426865698238
0.4618570368513027 0.0784467798862376 -0.0222403525139658
0.4238426516951754 0.0660798731275558 -0.0169648618823910
0.4091401108097410 0.0667390803529723 -0.0148534437442645
0.4709531597831662 0.0838693040725698 -0.0272437699749641
0.4498239084807763 0.0973919108634530 -0.0154134745968732
0.4657462983869841 0.0867967380748430 -0.0203686275807558
0.4390833313180708 0.0743333023619303 -0.0162720528058182
0.4421819311136597 0.0992530461223594 -0.0145605985202458
0.4317710593874537 0.0623119855512040 -0.0155482892966649
0.4469242723735508 0.0693989214314899 -0.0185408905254235
0.4445591093472968 0.1121034122425291 -0.0169420533531211
0.4009293457439564 0.0578484378321206 -0.0154430034963744
0.4570418915805727 0.0821112144905440 -0.0170288072233798
0.4504956400325327 0.0779142414573020 -0.0201747550819618
0.4188238588416781 0.0874306929999961 -0.0147332916704320
0.4318174910363243 0.1051647318024976 -0.0152456689886734
0.4351141381061538 0.0940170631218412 -0.0139732788915462
0.4119440325530661 0.0565371510466849 -0.0151061703944781
0.4548819034939561 0.1038208614038194 -0.0166056275463899
0.4309761210481234 0.0713938531522739 -0.0166390257499640
0.4031329144132850 0.0493294521498185 -0.0110802613307606
0.4243876126266592 0.0790754399742388 -0.0147880728701963
0.4771374277528382 0.0892411200107933 -0.0257445164706347
0.4359456311865910 0.0657149366592377 -0.0227065018309190
0.4653338102080896 0.0959134294125657 -0.0202875758428146
0.4059682997081476 0.0487455945300260 -0.0195574992585955
0.4466912995388657 0.0851500437205906 -0.0175613456523150
0.4208960748201221 0.0535404768662711 -0.0180832944069464
0.3895204990384016 0.0366132897866920 -0.0184441579236092
0.3993072927472187 0.0412519744269549 -0.0172340839868087
0.1121914898220757 0.0124617047084595 -0.0474619019920552
0.1346468941834432 -0.0021261825878770 -0.0473661876281548
0.1400998636833994 0.0409526124802876 -0.0366518810036262
0.1809586964518227 -0.0174109519124416 -0.0298773405153048
0.1594098293051417 0.0169230123041325 -0.0369082733103296
0.1555248443686989 0.0049978171524723 -0.0357920809091846
0.1223280482542948 0.0044764793405892 -0.0481547110686280
0.1519861621467511 -0.0050352883077012 -0.0383773869724096
0.1494295703926962 0.0085229568101662 -0.0391697797169553
0.1470504575070227 0.0320717450434089 -0.0362065037401151
0.1172318693193462 0.0174138029786006 -0.0410351915750995
0.1631042001041149 -0.0114094576483031 -0.0370595834643254
0.1700580522890625 0.0014708446665335 -0.0309874234889668
0.1438896433748987 0.0146344207689988 -0.0398491480530655
0.1635006001239705 0.0077806613709811 -0.0372520304300401
0.1340376824395962 0.0350596623777638 -0.0341384625371180
0.1140862269321383 0.0048340844959278 -0.0500891594573301
0.1516541147630497 0.0232421967973873 -0.0367989145583838
0.1426631758076854 -0.0047518108724898 -0.0416147725956539
0.1244402809827524 0.0235079568928980 -0.0426309740336604
0.1508001186247170 -0.0109147976697624 -0.0437995038635765
0.1399000854047051 0.0078938894269994 -0.0429612904129086
0.1335071804864887 0.0159558899335728 -0.0422668521556733
0.1423113746084557 0.0222428981087505 -0.0376126902991201
0.1478584292916501 0.0422425162695328 -0.0390777310095447
0.1336287580934005 0.0264975034079151 -0.0403116317135289
0.1592869279889420 -0.0013737047695536 -0.0326502060022579
0.1734836082787834 -0.0093017051666664 -0.0337330001998292
0.1231724729562375 0.0127651396067821 -0.0455038304837525
0.1300142171468719 0.0047432576740138 -0.0421648247167071
0.1867565431331945 -0.0085471908725152 -0.0312389282536838
0.0602913942349915 -0.0261629104294290 -0.0858254409288366
0.0565482498399458 -0.0152738741788865 -0.0852865894248356
0.0640686496001508 -0.0135003073805701 -0.0808008441192306
0.0608901181283260 -0.0214002044112611 -0.0775834159590974
0.0772417971390061 -0.0080230019944734 -0.0701958962466478
0.0905415116505510 -0.0208183832672963 -0.0598844045408320
0.0828908792611666 -0.0118558531497280 -0.0637080915548620
0.0936070187139401 0.0056431763422604 -0.0546030081293569
0.0703579997225302 -0.0243759028906501 -0.0730160079728029
0.0703381440832105 -0.0146199617906222 -0.0720006211251274
0.1045780231165463 0.0053173402098335 -0.0517580513981043
0.0915805216178273 -0.0120519657719324 -0.0609873598490971
0.0987789545496780 -0.0065866755932189 -0.0616962570847085
0.0900427787203550 -0.0019754833766296 -0.0609999859992287
0.0815138143064973 -0.0217152472218014 -0.0643365479952805
0.0774901453661902 -0.0157785128889827 -0.0678846998298270
0.1281339390151858 -0.0078890018850128 -0.0534324418236132
0.1169314891347651 -0.0029971832993708 -0.0499932414458469
0.1528362889810112 -0.0146191472002911 -0.0367854738179216
0.1108021041886490 -0.0088225224044160 -0.0522897752367085
0.0998406712224328 -0.0188578679880000 -0.0559124620865477
0.1434368329746167 -0.0149702356329811 -0.0419974264036728
0.1355611700062749 -0.0083241967693856 -0.0407048751958517
0.1111490178458923 -0.0180416484762705 -0.0526349578894983
0.1035611089120001 -0.0055470546831943 -0.0552858384743741
0.1216490872133501 -0.0163092184896731 -0.0491924991504077
0.1320632173008804 -0.0159135312363571 -0.0448896293741273
0.1271193667578414 -0.0047962060455330 -0.0438212941549325
0.1927932684291516 -0.0191307557489075 -0.0273451864711816
0.1864939395752166 0.0273446773522251 -0.0291152912605913
0.1908079081447578 0.0017983099796226 -0.0289022758890172
0.1538997366582196 0.0390981975916129 -0.0329548627860771
0.1705374386988956 0.0364167698693220 -0.0312407610819287
0.1861838861304541 0.0677002969436318 -0.0248737194067237
0.1944360934793317 0.0207039333257815 -0.0275459829877901
0.1867323090708452 -0.0030924903681056 -0.0237510102829305
0.1736809427864845 0.0492150022083036 -0.0280318861202717
0.1621385032666345 0.0421940481448343 -0.0307611710245128
0.1978114503399006 0.0430389819657338 -0.0213787195912793
0.1662304959709599 0.0549831163425913 -0.0300239667748969
0.1567021310446740 0.0542324713525128 -0.0305685204112158
0.1774406844595257 0.0682529964832609 -0.0241992386125999
0.1671611654242043 0.0645598475697842 -0.0269346329443240
0.1942404899760842 0.0313375955075344 -0.0271480556110637
0.1834298580449069 0.0479808978567366 -0.0261306322875606
0.1829695126840624 0.0033517337409680 -0.0288411816141871
0.2224294902064605 0.0506042860179389 -0.0195446694608812
0.1709522688249917 0.0129054527913084 -0.0327711726664218
0.1778029735092679 0.0418388867604889 -0.0277891382016137
0.1800595923739071 0.0330362199953926 -0.0287697013126360
0.1574227380162944 0.0301454425580174 -0.0335511429084188
0.1820575788084326 0.0203453099325291 -0.0304159883717230
0.1894591502040931 0.0554156638083881 -0.0250745159233318
0.2028348252640100 0.0511802013820035 -0.0235475663477461
0.1906077225708980 0.0412218345847054 -0.0256060361143532
0.1897630942213726 0.0109046152906243 -0.0267403531503645
0.1795559719017248 0.0113970351457545 -0.0298394620649101
0.2039833976308150 0.0369863721583208 -0.0240790865387675
0.1948243475958767 0.0501092187442327 -0.0230641069862576
0.2006098735984910 0.0254951500055368 -0.0264587085433979
0.1697829244047445 0.0259136457881226 -0.0324137711586657
0.1786265243339770 0.0599806280236895 -0.0267203956872533
0.2134921105653639 0.0474685205384952 -0.0218697139133301
