ply
format ascii 1.0
comment object: PointCloud
element vertex 835
property double x
property double y
property double z
end_header
0.1025643015106449 0.0589350440178814 0.3279873344187170
0.0985559940860711 0.0606066613976519 0.3198252748156882
0.1130615153320851 0.0710630461720275 0.3419474777292705
0.1024518869970855 0.0666826299531025 0.3336678177053858
0.0960968966832633 0.0531885800337583 0.3240982230787836
0.0956192945670142 0.0651161668166757 0.3280497248726585
0.0886377269769402 0.0597073452891767 0.3158444925913831
0.1170461470952686 0.0652305759099647 0.3491115294188044
0.1096442218271847 0.0611070615602101 0.3339718714393637
0.1136904661582151 0.0727790230049840 0.3494228434229978
0.1074887991882061 0.0492978730300409 0.3276582287633355
0.1165144320309559 0.0486304068693326 0.3353770129672613
0.1083154926487271 0.0676301351078444 0.3377854280991406
0.0776948442607215 0.0651878121205624 0.3141751889240989
0.0968367062507636 0.0725904155457544 0.3318603295544360
0.0913496373604730 0.0666446531550511 0.3204098462428349
0.1131102229690816 0.0443059984492142 0.3307964207266751
0.1100431178273043 0.0531183708272769 0.3345206202145669
0.1239127271639321 0.0598418597461399 0.3461507752682086
0.1600510811868747 0.0602661467462172 0.3711241900136379
0.1528859524242870 0.0337302580238203 0.3568071764978669
0.1503985519351164 0.0544241025014523 0.3638459685803829
0.1286242236721709 0.0650809026470566 0.3586342913133558
0.1168189644640689 0.0385933625373049 0.3288577690127078
0.1394202255371030 0.0368232927020821 0.3475302266091895
0.1345762689890223 0.0485231782630701 0.3474649639604375
0.1328916469494150 0.0533029891270472 0.3530835354922995
0.1532534337936657 0.0611410491988022 0.3662693829518285
0.1212171324425873 0.0817820772051949 0.3577332997579077
0.1270505202113258 0.0361248706639707 0.3339182571362321
0.1464941222228594 0.0668152296135252 0.3632099369962128
0.1645158282367666 0.0545581382592804 0.3698727109081074
0.1341049497989215 0.0409265421217841 0.3493773670051633
0.1253791421811229 0.0397893125431640 0.3453132113481613
0.1399590014136584 0.0536430250793469 0.3564068244545447
0.1286895661041121 0.0458652810986145 0.3435593375003427
0.1407328185655481 0.0483479743796234 0.3512678296728640
0.1370666812935847 0.0733132512397559 0.3644235988700706
0.1598722870599147 0.0459495321463922 0.3641133220473364
0.1472983766614226 0.0513056967690301 0.3572872319471836
0.1428615936193395 0.0410462169055591 0.3514865951776047
0.1209526511704443 0.0747850915138112 0.3503009372031504
0.1297366207331577 0.0387455888622668 0.3398258831625061
0.1365759149511204 0.0632171673477325 0.3601816064843787
0.1363949666780524 0.0359525389753345 0.3409326355628581
0.1238913053776363 0.0517888637627248 0.3442414837678610
0.1233098056032731 0.0671381919633396 0.3547689553637989
0.1359329422294914 0.0592648677219656 0.3545473974474366
0.1454535100863404 0.0335225025991867 0.3531835038283466
0.1511199116401180 0.0447921972040979 0.3578002378536329
0.1233942361632265 0.0434754554498151 0.3377162560741186
0.1441248407452748 0.0591364167873803 0.3608430091227091
0.1300407542503248 0.0718345496114309 0.3562719110816356
0.1643932413665863 0.0370423773395797 0.3597836479367318
0.1571786869182996 0.0530031639020961 0.3680810198286157
0.1294953962606617 0.0599443013610513 0.3525107719771519
0.1565633590717226 0.0389287710646319 0.3618409372530148
0.1299451340980885 0.0803764569781619 0.3604098661886325
0.1507033636093915 0.0385415034643357 0.3508807216389460
0.1569398160498845 0.0853525344875301 0.3851292512597018
0.1538650118303510 0.0800525372300773 0.3774471673228003
0.1464697883501585 0.0911858025814848 0.3882535609481235
0.1358162992069053 0.0830924363043429 0.3697066820914164
0.1443416116702860 0.0867964506453712 0.3751427096864270
0.1648527925362827 0.0872336625220962 0.3903747565989422
0.1537929676105184 0.0878057079885412 0.3928390199632497
0.1659001862438823 0.0742684155806596 0.3801952194910331
0.1601916192746212 0.0657351247983604 0.3777683744424528
0.1508097544921676 0.0895958831874381 0.3821466365152698
0.1548390847870911 0.0726384450256428 0.3792872867981260
0.1398839254326368 0.0877744329783812 0.3817922395889171
0.1641401690904966 0.0689529403845051 0.3865477165801935
0.1438608381722669 0.0727791825713623 0.3672937991009433
0.1285456970682171 0.0813636941611172 0.3693617793645766
0.1667596107577658 0.0912861698334775 0.4032054890834160
0.1616782593302701 0.0820673818897147 0.3943681445671388
0.1576841134217764 0.0765297902948737 0.3876988284337313
0.1470615402643317 0.0815604395056434 0.3812987805638178
0.1508667196892445 0.0975911161418844 0.3962850952536482
0.1328964538865633 0.0870469698594071 0.3768645904753831
0.1416128670338356 0.0790646617816085 0.3721200437810249
0.1648962743743876 0.0994910730090978 0.4061354469229866
0.1572998775826691 0.0992984763904090 0.4020494306721484
0.1519913036323791 0.0661410616649256 0.3720059538204927
0.1602864017033711 0.0911221355965165 0.3977669882095407
0.1594982235774284 0.0771409295240185 0.3810843233512928
0.1674860366952806 0.0776697325019260 0.3960706380411232
0.1486874817682947 0.0742266091895274 0.3724903175620252
0.1662824673948545 0.0778292988802928 0.3885138934944291
0.1247866123808550 0.0869435708462254 0.3666248170596404
0.1741328539693383 0.1015325652539225 0.4077039844223323
0.1926849187333422 0.0448573002864715 0.3776246849187334
0.1749750054227637 0.0533422424561255 0.3765441014044333
0.1663758137261991 0.0412965765532166 0.3668631294457314
0.1693224861439040 0.0483569100968119 0.3686574533704659
0.1875507109430124 0.0425448643311800 0.3724216242361381
0.1746687576510832 0.0391882259958563 0.3662841428418272
0.1777576037119130 0.0453750931842717 0.3726013757613685
0.1841445272472058 0.0490591617280041 0.3768846160558683
0.1685867255732547 0.0656460867592318 0.3815617459553665
0.2114997095393269 0.0670850563593435 0.4018221283661651
0.1821743611735110 0.0931092157063181 0.4133436984993279
0.1999598690558408 0.0684338709556779 0.4038745509079076
0.2039643468873337 0.0628554303679750 0.4009672514940647
0.1826919147217437 0.0809877557736850 0.4085900565214031
0.2043126802913084 0.0783212420247976 0.4076086435112581
0.1933302849506467 0.0714029225579488 0.4026766861055084
0.1859129216354556 0.0632891317843760 0.3943570547038423
0.2078205077701347 0.0659783039589914 0.4082133203020792
0.2104555869424838 0.0545732970652252 0.3931808111457114
0.2027524402436379 0.0720364010800649 0.4099506790297367
0.1975351781533683 0.0646069905033072 0.3979211293310429
0.1775739029188181 0.0770194995100814 0.4006346353783593
0.1989727116560747 0.0830081852565653 0.4132177208436075
0.1798535479833553 0.0858604342698716 0.4008142273372113
0.2104545098694298 0.0775074534951270 0.4106139964646076
0.2077142365621424 0.0490577256305988 0.3860679004804444
0.2102177133639336 0.0603885341584245 0.4025756805880021
0.2022179327677038 0.0568780738343552 0.3959176138842693
0.1841988595990397 0.0694906790796012 0.3974280692218895
0.2070727797211079 0.0724432953449002 0.4046115880095841
0.1754440906835674 0.0931140026976691 0.4037470573715927
0.1936335408527327 0.0923964326941537 0.4107331127660582
0.1866263828047282 0.0732253301652759 0.4032037338532536
0.1919637584863134 0.0641345144569632 0.3908501846232864
0.1774653977815287 0.0794817682946592 0.3930264306746417
0.1977534250673794 0.0594392737735204 0.3897703989408782
0.1751768967829923 0.0963027772029510 0.4120231271519644
0.1993472937292907 0.0455233303497745 0.3814496505745636
0.2151022396637139 0.0700359173944805 0.4068947435344452
0.1803050011593495 0.0972512397559632 0.4075444180439655
0.1791384512587045 0.0618265463602660 0.3907189412770797
0.1952209869679147 0.0780126406490362 0.4094327265655581
0.1848105573105087 0.0560711466589543 0.3818306153029143
0.1878159501554526 0.0798269103710666 0.4009168285185008
0.1934087916088031 0.0537706781820403 0.3924255036937123
0.1830195842797199 0.0904028103628390 0.4061811626903890
0.2044798260726476 0.0811115792832977 0.4174542879724349
0.2006977837725980 0.0526502030731487 0.3881539915280224
0.1772503820866795 0.0618713845125870 0.3814038550239725
0.1918092184488653 0.0577783473411006 0.3855710107782100
0.1696108624812074 0.0846507615554730 0.3978932052148286
0.1739142081393813 0.0833617843510261 0.4029240937751659
0.1724909957191333 0.0727938626781721 0.3943948719355153
0.1722039358044515 0.0692353728742143 0.3874318738827237
0.1840207436291877 0.0767153659929143 0.3954730619541394
0.2129265520946827 0.0719144923669927 0.4142410998112629
0.1885251429241037 0.0894511564822595 0.4144439086781671
0.2053234535150728 0.0692569143352938 0.3987872556328176
0.1945119138740473 0.0501987848022997 0.3832324059368664
0.1783681445671388 0.0730793269290702 0.3871103476303146
0.1911871090312077 0.0722207002470786 0.3952144048548071
0.1677336438229113 0.0582881619199825 0.3758891612044268
0.2150001969647483 0.0781098165734616 0.4180530608072561
0.1853126329200398 0.0630987690949844 0.3863141911854534
0.1911177375482128 0.0866282676825726 0.4080472914853884
0.2351098689311795 0.0657399117897115 0.4211930877839473
0.2294688384315623 0.0700298538721025 0.4197752607289691
0.2233325936766836 0.0706585454028677 0.4164145534509970
0.2248997748618131 0.0607705360682346 0.4044160394128956
0.2177321329287661 0.0630635049253653 0.4013025004550135
0.2256492581410019 0.0616566081673053 0.4116474281140999
0.2404942768027885 0.0708160374183157 0.4172814775846637
0.2250136653643723 0.0689183144803995 0.4078587638093481
0.2267704114070015 0.0779213686806104 0.4174335443432474
0.2193018671759494 0.0548804623435813 0.3970011493765693
0.2322962349814380 0.0646310850264406 0.4115602250883225
0.2195620401558764 0.0642642419225754 0.4081613016627313
0.2346731357535897 0.0754278248858726 0.4186299730482416
0.2194922298653410 0.0757736052277935 0.4114332102511424
0.1226253256774715 0.1604216541548342 0.4175868876328577
0.1005648948981144 0.1436844175951851 0.3968063188285835
0.1052127643129795 0.1294659363180557 0.3954681951795993
0.1108073609964921 0.1352489410028248 0.3925474921899736
0.1047836703757539 0.1368741245664906 0.3995131230880082
0.1195719033526392 0.1440836526738588 0.4079680667785292
0.1061312483326560 0.1494908785375741 0.4044901579956468
0.1171626704430710 0.1352492601355816 0.4068795049453113
0.1124030048343626 0.1428253122140583 0.4019584778364792
0.1155455050899182 0.1569003433170360 0.4120784169020688
0.1207055426877461 0.1275985309920292 0.3989437902499958
0.1119906454210683 0.1332864341152917 0.4001384637248276
0.1204999613550178 0.1496410304996173 0.4150304746850436
0.1125091164759766 0.1523514250025555 0.4076204514232573
0.1124456888405758 0.1261467960816481 0.3961801005766827
0.1368667446214911 0.1539871399471935 0.4272594025735065
0.1399594003296044 0.1398462079299503 0.4150132415161799
0.1352864789933357 0.1326594978146886 0.4067062158584048
0.1626673714181711 0.1217697307566687 0.4123536689047513
0.1708854388200066 0.1187630214891033 0.4113372310745547
0.1530317960941143 0.1241167926160658 0.4200161261771135
0.1540273706203393 0.1106142856786682 0.4096634595486766
0.1289362756708644 0.1183275648425404 0.4034461949651821
0.1443621957330953 0.1224794820076442 0.4119209248866205
0.1278534183356728 0.1441425326674761 0.4159747885122182
0.1600429831931726 0.1290052681837108 0.4259414640713860
0.1371730322847662 0.1194182010386774 0.4059455629327304
0.1288628352452211 0.1524154111202806 0.4159779798397854
0.1585255468264990 0.1287330479422170 0.4165714072009313
0.1379504596259665 0.1620573690994722 0.4260139072071644
0.1527387524402437 0.1461278575471157 0.4320515798318070
0.1430899331067824 0.1226567602540097 0.4052575127092127
0.1335281971243147 0.1578336470641033 0.4191056404221526
0.1684932994587210 0.1331603766763819 0.4304639741502467
0.1398495787696934 0.1555974838376711 0.4176585329367444
0.1423862054865902 0.1606693011740595 0.4317760086963675
0.1356326383054051 0.1275288004846829 0.4123181653855647
0.1428539344331779 0.1522148361826736 0.4230805186904587
0.1271697960791549 0.1561234146207681 0.4226059682811958
0.1254021995227968 0.1375966411277354 0.4087248103279340
0.1547571474517998 0.1366362110963457 0.4200799527284605
0.1593221420789006 0.1424366085163568 0.4327209607890556
0.1650262411895674 0.1383140515648724 0.4336009693657487
0.1330966897456163 0.1350004961517077 0.4149412770795364
0.1268024742761546 0.1473554016958914 0.4086388040499941
0.1533426712907674 0.1185957959245750 0.4050477627048495
0.1662347171561282 0.1139832106251262 0.4090070034680755
0.1260462692632771 0.1363563316686903 0.4012480883199904
0.1594113795760023 0.1051440310954980 0.4073994519892195
0.1425758501272792 0.1344372268360730 0.4119956817348853
0.1351211482795504 0.1473129570392459 0.4160211425451337
0.1508954416373505 0.1309995287805389 0.4141419293071081
0.1562970028946339 0.1361683624749743 0.4280282731676670
0.1456447104992184 0.1138847581696739 0.4080551900211175
0.1433071827309287 0.1505164116513375 0.4300707228107619
0.1693072076631754 0.1054338036386121 0.4132783560673867
0.1493697477105965 0.1525406707272985 0.4358901884129878
0.1423834529665634 0.1452709860952861 0.4183279138939929
0.1566401902829062 0.1596669051851593 0.4343300281485066
0.1320666688274614 0.1411171541336418 0.4092573631157331
0.1568478260327560 0.1483217356832807 0.4397849643593536
0.1696314066524221 0.1421232201492444 0.4375649173371365
0.1482213484854907 0.1582939960656915 0.4285861172264373
0.1268437221849624 0.1289232510652302 0.4078392967111872
0.1442949783962083 0.1370429457948026 0.4224136907952637
0.1502762841976928 0.1386025475769596 0.4259889350689502
0.1709963374529716 0.1274514107911750 0.4233086986115233
0.1566299381430961 0.1525933276321596 0.4312336425762989
0.1597189038787096 0.1214999040108505 0.4210316066090399
0.1481475091439015 0.1459043050510238 0.4257701695642093
0.1641858050747095 0.1159479514419565 0.4174400865647603
0.1662573356902617 0.1206379264349131 0.4240683941389276
0.1485019858534433 0.1649844547442325 0.4327898136813210
0.1347372914105918 0.1410970487699676 0.4215085505139783
0.1556820340724083 0.1162485744987995 0.4153420280388044
0.1387475734690977 0.1463282729183444 0.4249491207643230
0.1383562768177478 0.1264531635281123 0.4018518077125410
0.1501027956528135 0.1312958435451660 0.4245924899086732
0.1326417660008926 0.1252999773116556 0.4057500941192310
0.1627441228461656 0.1095786998830678 0.4130509739782142
0.1665258460134585 0.1528832597416521 0.4371125466544666
0.1412803705929138 0.1679338796819643 0.4313668805022353
0.1275902534861514 0.1238565398529496 0.3982889298331783
0.1318993834255411 0.1488679313964302 0.4232934600223890
0.1633961908513615 0.1462373200826753 0.4382623819769774
0.1298460433771227 0.1635665479060653 0.4232933004560108
0.1440970761954389 0.1285228990219080 0.4169044222325829
0.1495919837840669 0.1175994634580527 0.4125098046059832
0.1589173221769841 0.1551064980914365 0.4394498749647832
0.1664159446703583 0.1623356528633439 0.4504901131176029
0.1609832280776989 0.1613308633787682 0.4459573907905268
0.1521734486532847 0.1598215250057967 0.4398266111841073
0.1656693734775747 0.1559596995165637 0.4449860304622191
0.1692557873977467 0.1641663579223460 0.4430313423272256
0.1619810764248156 0.1616776011189592 0.4390156948492470
0.1586216855694650 0.1740631434077893 0.4442645510824335
0.1658139805079696 0.1711864807385929 0.4436161531039402
0.1692903335186631 0.1765014772356122 0.4488119535163194
0.1598640294998342 0.1674598079718365 0.4490757167397598
0.1559132457546618 0.1667848421913450 0.4416838042619182
0.1739653092720532 0.1674521487856749 0.4499802187555318
0.1501075826441645 0.1713385474971764 0.4376413496323740
0.1664527646121665 0.1707787886418657 0.4553593609366548
0.1714814990263958 0.1491750966747863 0.4429608139879875
0.1971517800377474 0.1340526718642090 0.4381331332105005
0.1998250753577154 0.1278950053230347 0.4332471309217202
0.2050628816191999 0.1312818017038697 0.4387963708621820
0.2093743651626705 0.1369103461343798 0.4492638454998542
0.1946286765714172 0.1157212076182973 0.4340780728370653
0.2204521811975956 0.1215934099085735 0.4443069159558898
0.2027771730322848 0.1224263464036481 0.4284587832565006
0.1929949562065088 0.1179401376758658 0.4197953660926431
0.2182592604597008 0.1388698212607240 0.4474810103543622
0.1728216172551092 0.1213937923692366 0.4267155205728435
0.2144115565949533 0.1291708980844555 0.4504339457524180
0.1828734214771359 0.1324924318165386 0.4319424364290040
0.1909789147990336 0.1066994841518174 0.4177061635006870
0.1717634129253753 0.1261846133133210 0.4321123746219649
0.2075152572883190 0.1249869080772999 0.4441438391171988
0.2134337338283216 0.1245817690426267 0.4403820617472021
0.1877550356905111 0.1271895623642751 0.4311645503344661
0.1739377441801904 0.1120108106221343 0.4058630671151148
0.2047586284272490 0.1305238614066275 0.4491256610161885
0.1767653002964444 0.1308468237564419 0.4272805451186402
0.1990255680189086 0.1248251077696360 0.4411571554301185
0.1884072233704907 0.1110770281759319 0.4262309174817435
0.1793290931892582 0.1242477966127049 0.4307548636580095
0.1800690423773396 0.1126680645346272 0.4112654262042899
0.1787325542837340 0.1192201791631242 0.4177744579106280
0.1831530615552237 0.1261860494107263 0.4365836638933696
0.1710312027066447 0.1121512290350971 0.4197497301084303
0.1857465736860083 0.1226666533694685 0.4239984242820138
0.1822927993178538 0.1112142552613273 0.4192857908633291
0.2018763410432151 0.1116913587326440 0.4360637168494617
0.1889343110098308 0.1217681350928851 0.4360372288306527
0.2080780479048187 0.1259803683490116 0.4334702845018662
0.2085330514327316 0.1125420070957174 0.4402441963962929
0.1925115099716521 0.1282502000812791 0.4417568856632102
0.1842135397058494 0.1175030853655192 0.4302755262573953
0.2052860351993458 0.1198787096066439 0.4388601176303394
0.1787104942319248 0.1383491561681132 0.4423830241319215
0.1950727498024120 0.1248954765424957 0.4272781516229647
0.1852418652312341 0.1408677518842545 0.4404979867210853
0.1763319977959894 0.1338950202823826 0.4374343920396321
0.1860600418363099 0.1175013301353572 0.4172034496256423
0.1857900954157078 0.1308758648373047 0.4411878719579544
0.2120040988613443 0.1326368393889605 0.4427190709247621
0.1953614851640667 0.1322048932027216 0.4476505496313766
0.1983416665212286 0.1130192701334124 0.4265067279667505
0.1767868018659294 0.1157606205137539 0.4267726453362986
0.2120031414630741 0.1182905454427593 0.4436329075736685
0.2227941369328849 0.1259004255934498 0.4520422950631658
0.2429442589762321 0.1211844412808194 0.4536852702780193
0.2241672854019203 0.1331887794917312 0.4484974481845583
0.2247128029579618 0.1178917890632207 0.4512700735750598
0.2358586341616657 0.1182962898323805 0.4568833794164360
0.2497225589460641 0.1137620516247099 0.4538143594781182
0.2316486747264310 0.1149355027712192 0.4486258991191437
0.2309581113324541 0.1262487589974245 0.4517641708656726
0.1961896745593849 0.1841737478402441 0.4712231311411240
0.1904400591392890 0.1513948245642467 0.4549815875358714
0.1872575875059526 0.1734446641252397 0.4626591238309893
0.2041819156442368 0.1782677174777542 0.4839104932346350
0.2142480010571273 0.1857569654463994 0.4808502494471274
0.2218188672283071 0.1412058730400138 0.4623606549202542
0.2081616606870829 0.1658785051622217 0.4682819238718783
0.2006917202502201 0.1383853777360024 0.4537806909722828
0.1938949105804975 0.1731454771658019 0.4602089820911672
0.2034678561010455 0.1721802601430612 0.4631215471954964
0.1904580103568553 0.1611382667600795 0.4544299665658571
0.1806977339081048 0.1662539648505187 0.4577128852343757
0.2103088656575756 0.1748185306429777 0.4677302231186748
0.1736448600926981 0.1542084585139882 0.4489600311154436
0.2015654259549674 0.1735834868744188 0.4713972180599220
0.2063585207199436 0.1552523417612637 0.4670057119777006
0.1782779097801724 0.1447488849052699 0.4449195710656291
0.1840376975568892 0.1527184276727992 0.4458333279313466
0.1942800240346858 0.1766139715323608 0.4683498193658732
0.2118535479833553 0.1593715478188024 0.4678858801207719
0.1888303535143249 0.1802120337981535 0.4634547217935261
0.2220642005350461 0.1566981727156453 0.4703420055997826
0.2152511150947301 0.1549322516062600 0.4718309194763232
0.1956581988446397 0.1581278874658117 0.4608223552496092
0.1757472269108697 0.1605799440021741 0.4526807999262005
0.1857836329773840 0.1712884436543692 0.4549477594636577
0.1800206139815053 0.1618623789851080 0.4441743960786561
0.2080875421043315 0.1424943715453256 0.4587623533048941
0.1878235694500197 0.1722948288027286 0.4716246799322840
0.1832049206281929 0.1599555607636249 0.4547047398694047
0.2015165986431872 0.1493668954615831 0.4602780743330001
0.2152089496792467 0.1421781109834026 0.4603948769219647
0.1895125795650320 0.1651280644847627 0.4622783984522060
0.2144398796271134 0.1365419073667309 0.4563125306978286
0.2211368406355729 0.1481932847486954 0.4663944131821774
0.2080830742457372 0.1516279510430406 0.4601088541887423
0.1999677675915700 0.1591042741350380 0.4667076419829116
0.2163446234856777 0.1772707467457185 0.4796518261624035
0.1893538509101517 0.1402704949300276 0.4490062255819809
0.2143571843515248 0.1702544535225525 0.4760425144669361
0.2061723466479841 0.1874423055347094 0.4780384505107372
0.1797984975828187 0.1709659600036900 0.4660900403154429
0.2197330953134856 0.1437251070216686 0.4542397634428439
0.2041352823701591 0.1618550389317031 0.4592428076701563
0.1856163675212610 0.1471564224220680 0.4505596840585710
0.2135523714306373 0.1487318212756834 0.4632836666359169
0.1967755624091532 0.1459974918159900 0.4535981470354313
0.1982411795944521 0.1661727455639300 0.4661649567300860
0.2175138461231604 0.1643279986636316 0.4730768935418003
0.1763073048989372 0.1717591644705513 0.4577155978628078
0.2084925614642210 0.1754007883576381 0.4762085432836267
0.2529502676476675 0.1344592469962876 0.4679444409816324
0.2538179896132261 0.1438048902108520 0.4739383924186023
0.2460171085076306 0.1413713433743801 0.4689821809233408
0.2586242087128229 0.1629884389172424 0.4913661524806340
0.2242216975369434 0.1340813938123150 0.4568438867377899
0.2576940962933229 0.1249441442878976 0.4598684674397326
0.2374730071031971 0.1362687297269670 0.4590778160349251
0.2322883763373034 0.1302233979161628 0.4589788848803377
0.2462551815441538 0.1479000017452573 0.4658145489631925
0.2288621670610117 0.1677189437703042 0.4730730639487193
0.2565324530588127 0.1600955004774525 0.4749922485645259
0.2390883374429987 0.1431977401411664 0.4672445828461155
0.2411798537474414 0.1604856402725593 0.4700286970158593
0.2517647293479969 0.1658979722603824 0.4904214397375133
0.2396908600877117 0.1253545490130570 0.4602740053903517
0.2514747972385044 0.1536882721205125 0.4676291378179798
0.2396052128341233 0.1454662953424070 0.4744306546958640
0.2560729816723055 0.1518803850536168 0.4783562269532545
0.2476448451333502 0.1182493773171407 0.4613861032643789
0.2472435755833523 0.1496689546158315 0.4739457324720074
0.2402892340065871 0.1581733638836462 0.4802537903247925
0.2483153031636528 0.1597069563461294 0.4707725954718052
0.2660118527900431 0.1628786572489260 0.4899586972402496
0.2404872957737349 0.1534533904115566 0.4628338490153008
0.2574291762136395 0.1228913228302089 0.4677093997062981
0.2353820891726733 0.1546632226923336 0.4754515603846549
0.2481940327160941 0.1571851693024207 0.4786338724516129
0.2723371039200972 0.1504075873812914 0.4854788711676020
0.2664374961043365 0.1558113027846826 0.4839291625009036
0.2269289007123143 0.1519499559945847 0.4706305813950591
0.2697605856086087 0.1223906035348939 0.4697461847429611
0.2372913806730211 0.1721170718572280 0.4833421177948924
0.2645387758765555 0.1586764766746367 0.4765350160937652
0.2308844714488378 0.1479927098110884 0.4580687980413228
0.2292698192661443 0.1408152545457719 0.4520643152233805
0.2718617556789425 0.1584430310630860 0.4885189298082461
0.2348008686394723 0.1641671557542378 0.4795330289937096
0.2359174742636884 0.1421918336919422 0.4546157018302762
0.2335950255181544 0.1477785717313201 0.4695179250387073
0.2298092334082132 0.1369462485695123 0.4597336338500126
0.2538157955755235 0.1308570360046573 0.4617002096801939
0.2246582711481549 0.1529301722568919 0.4599191297648640
0.2503337779583981 0.1731004794471025 0.4889098674352448
0.2615736336505546 0.1367239726044474 0.4750347730043606
0.2257034309264574 0.1707904369874865 0.4793313370914538
0.2632079124977873 0.1663929471660762 0.4822123080528664
0.2440612236247997 0.1649720085667199 0.4840044778314928
0.2666254652980526 0.1309722429298381 0.4765261601597660
0.2653766988209541 0.1229663190280413 0.4646334386305214
0.2425491726233960 0.1330799552216851 0.4642057209533094
0.2530142138737980 0.1658130829470913 0.4796422521797015
0.2480666588545627 0.1737398619252182 0.4801831822023651
0.2577135633914837 0.1593263905337246 0.4844471149650825
0.2619887455838759 0.1270794615632020 0.4728310017527371
0.2717363365055462 0.1628097245734716 0.4815008813549179
0.2707934188841823 0.1366215309895359 0.4786222241059921
0.2637424997569106 0.1456204364639093 0.4792498784552979
0.2264626477547266 0.1608089217551305 0.4748235071194030
0.2436449548352353 0.1542250534173384 0.4701627327736875
0.2321302859479365 0.1410483810245657 0.4648646503127752
0.2491410990632955 0.1264126336680072 0.4652943625697170
0.1909178806593084 0.1044374711720898 0.4252072991645205
0.2079300500888835 0.1083958343202348 0.4338079269584903
0.1975814524030946 0.0958625335650370 0.4173502506937399
0.2130293926255401 0.1069176113910448 0.4387238479432143
0.2127331576441022 0.0861436645914727 0.4258095026764767
0.2090121494837779 0.0882268036610511 0.4172119864268851
0.1981068247038673 0.0965043095388282 0.4244792775632220
0.2164741913849115 0.1121489951058000 0.4441885974863307
0.2068568864111777 0.1015536280158669 0.4317038049101565
0.1838764557315496 0.1030168517054904 0.4224468008187751
0.2048387706407837 0.0951065080643352 0.4216985940706131
0.2022690339003758 0.0872957338432809 0.4216560696307783
0.1904102202265344 0.0962456524394956 0.4215554630292181
0.1955750647615106 0.0878957034259400 0.4176237474662604
0.1846151682801986 0.1006779277313899 0.4146395370580447
0.2081772184089737 0.0939584279719861 0.4288998247263063
0.1769863795136716 0.1037968121629472 0.4160587204272391
0.1978584596359394 0.1033422075509802 0.4279200871631342
0.2149663688925346 0.0960597576086984 0.4333352913457677
0.2210540655767951 0.0885078000533550 0.4215481229758133
0.2528832098771588 0.0807608523836474 0.4346664738572928
0.2328782134549363 0.0982043297339480 0.4431197421008411
0.2666767259971029 0.1135683380413726 0.4618636056516415
0.2564912051500049 0.1030655194508922 0.4515805897473614
0.2240054053110672 0.0796874493563741 0.4243773146474455
0.2646985018213007 0.0878365042995660 0.4472103059934628
0.2671176079005304 0.0904990288889942 0.4539954673175643
0.2195447272038236 0.1043450822390155 0.4419726991899515
0.2487222373200827 0.1063125356842780 0.4549640352342508
0.2302894883155027 0.0842993963903093 0.4211733015530295
0.2486773991677616 0.0781600799826471 0.4300799776607069
0.2448634834836333 0.0823938546998532 0.4361749346151833
0.2449011810405224 0.1015829882294864 0.4499099297658614
0.2291940252364201 0.0918902881419742 0.4262419275618508
0.2446334286576229 0.0917801873409011 0.4330943461144341
0.2527254386205487 0.0971829453460222 0.4491606858362401
0.2401216893093020 0.1102546230618295 0.4545840279041706
0.2196569023678155 0.0869525065634139 0.4291124469254802
0.2466005230785341 0.0947430158544156 0.4460412429223585
0.2459597443946077 0.0754557490020868 0.4244413007651705
0.2402632246869134 0.0941388975459190 0.4433188011578535
0.2652970353065545 0.0984175104154460 0.4559456875939634
0.2273585331860669 0.0845757653576406 0.4304709152877056
0.2351855831777146 0.0814324672701932 0.4290675289899699
0.2366031708831251 0.0935346196710440 0.4374760388643859
0.2539135698738678 0.0878893207708053 0.4377504930351769
0.2548956610411208 0.0914411087868717 0.4435984412359413
0.2375991044337014 0.0856293821539965 0.4357319783488369
0.2579362382724945 0.0940512956041956 0.4526796829615518
0.2362943301577962 0.1032597117333646 0.4486756040460048
0.2237624655000038 0.0921861242074662 0.4339086133432397
0.2235409474752361 0.1100385701855209 0.4463019743846099
0.2478599007197940 0.0884860990258971 0.4409587346386196
0.2291841321209613 0.1045553907257029 0.4458558267906964
0.2307683071253868 0.0900643700743230 0.4342197677810548
0.2633160187191308 0.1060103169636513 0.4594181711199813
0.2382210941765752 0.0725363225434881 0.4256122786328153
0.2567078962918270 0.0824508198969301 0.4426577974354692
0.2557439558001132 0.1110794216716074 0.4580160613532723
0.2418096622428551 0.0772990598049800 0.4310972133227952
0.2406455856210748 0.1012999174742637 0.4418576518311488
0.2252881594267578 0.0989276441270847 0.4403644296623923
0.2705237915963370 0.1158676895536380 0.4679568073759559
0.2595138710554070 0.1150234238456993 0.4650594808607610
0.2639474228783282 0.1188769518832573 0.4712567198637703
0.2238277281487558 0.1845579836793514 0.4960831739747237
0.2220911273613954 0.1814060690074722 0.4850454091007685
0.2191095896900174 0.1896457576535764 0.4868099738959379
0.2531663205239761 0.1893012538426825 0.5087621588333702
0.2428628003400759 0.1725895479035720 0.4904131422858381
0.2384023615823999 0.1887028799238070 0.5025149755539322
0.2467308489180652 0.1928354895571285 0.5034328811454870
0.2567707654449035 0.1827628619227250 0.5043148843019095
0.2593172453856645 0.1765190295372326 0.4983421551932623
0.2606812985711330 0.1908265488534906 0.5184786343112592
0.2739239516613603 0.1809473156696677 0.5150184373963752
0.2373456731332604 0.1784073380588251 0.4897836529231813
0.2712322663162856 0.1834611243944581 0.4992103558579560
0.2628901759468644 0.1826891422559195 0.5087420534696963
0.2299279906853127 0.1774883952858108 0.4874336390857845
0.2318772535634414 0.1933990780055200 0.4949984417345861
0.2584153363235408 0.1963663743776288 0.5121716136399336
0.2274753357750314 0.1896291627502263 0.4885321738176505
0.2423312847337361 0.1824746850433946 0.4970078611373591
0.2628094353594108 0.1900721190165724 0.5058026812138015
0.2536462562985088 0.1770815010209755 0.4941195501225422
0.2594806014655175 0.1881949801414656 0.5116965845315355
0.2708181516728291 0.1780140069361510 0.5088151348709883
0.2607923966620709 0.1707838947659735 0.4938950402281800
0.2462494770461272 0.1777173730387671 0.4938977528566121
0.2547602290774820 0.1944763106258742 0.5042873591016412
0.2732528553655442 0.1651277453520059 0.4965834145709035
0.2670871706138569 0.1954608351803973 0.5188791459209597
0.2730214841169123 0.1969947467756372 0.5281143692016942
0.2333013037071758 0.1841796517962437 0.4934930925210740
0.2736425164615159 0.1899958462877131 0.5222783884793073
0.2667799654439062 0.1860515249808645 0.5133791322082243
0.2644024264062411 0.1795514289917150 0.5027181035535929
0.2669967363689175 0.1676873496273876 0.4951527424224669
0.2488590255979376 0.1844327240723334 0.5019654289468369
0.2684384185974614 0.1727071483244284 0.5000180808652486
0.2984656196785236 0.1309514993006505 0.4860761281218288
0.2933153355755734 0.1262468442008841 0.4850543448179573
0.2934119131260799 0.1475417752258238 0.4936283250267397
0.3019311620670828 0.1408843467876047 0.5010673893693887
0.2795446773393304 0.1492703578026712 0.4873140440851983
0.2873439228895477 0.1580465086128446 0.4943914512312791
0.2852331788365118 0.1492536033329427 0.4921564847526847
0.2806695006320325 0.1416070229152279 0.4843165896675785
0.2880336485600381 0.1319390556163625 0.4838161895050203
0.2914323326360616 0.1337494957453121 0.4897046675658898
0.2722911089115330 0.1274479003308509 0.4737057446389437
0.2795714844908960 0.1665837885546029 0.4855342407008955
0.2958888620174676 0.1406630282208099 0.4952136967790029
0.2728902008791110 0.1431779539102489 0.4826984270245609
0.2903342766033305 0.1409848736059758 0.4866002238915748
0.2998015093982104 0.1347413603532401 0.4929354080286821
0.2960979737563172 0.1488132001286504 0.5000121769092493
0.2900197712715695 0.1522443559626714 0.4976788377583914
0.3078567393109226 0.1343998883035352 0.5031798886525866
0.2785844068743191 0.1580192227621439 0.4924600597875274
0.2860024084550235 0.1198601999067534 0.4704159646161554
0.2812455352579366 0.1223944331279747 0.4755732297481592
0.2791642312017094 0.1312707916237624 0.4797316093515870
0.3021754581923623 0.1278889418006567 0.4958607384432804
0.2771315549992895 0.1174383014159023 0.4713101746005232
0.2833654144861339 0.1151703844801751 0.4658117565515710
0.2895635709958189 0.1226004333224462 0.4807932044668611
0.2700311304031295 0.1038181940576483 0.4581800955902334
0.2793652848384515 0.0992711905397083 0.4611453175994236
0.2733436486348348 0.1051004694742039 0.4643421502068129
0.2725474921899738 0.0942951130303400 0.4577535746608590
0.2865407056324439 0.1097412980226235 0.4761416849710911
0.2945986880651829 0.1156061602594948 0.4754762133901124
0.2989305961050845 0.1162908595890667 0.4882905903208031
0.2873462366020340 0.1168739151356189 0.4769608987576262
0.2777133739064094 0.1103846696601984 0.4684386180554344
0.2976649155918791 0.1229811587012294 0.4915662487191056
0.2925323832485222 0.1156754120677060 0.4837658463126452
0.2832676401877897 0.1031162615592128 0.4689200298189670
0.2875632069850182 0.1081548890889009 0.4659141183832936
0.3165324430859141 0.1706335832375520 0.5389047264059915
0.3187005512519728 0.1478956934530413 0.5225332159855594
0.3196975219840085 0.1644296424466512 0.5354058346443538
0.3074102725842524 0.1881876400880607 0.5303039390456437
0.2862436329275195 0.1678247362791614 0.4926745170000523
0.2785432786402950 0.1737527868018659 0.4942120986219946
0.2767067494084825 0.1725319444409816 0.5027248053414846
0.2960250918129982 0.1662603475056534 0.5099079252132330
0.2875079571265087 0.1744232847237632 0.4996523547260321
0.2976749283821216 0.1536416787380294 0.5054310511185852
0.3027610668009684 0.1478811729126100 0.5064757321977528
0.3034978645530770 0.1833144828927390 0.5363923537786066
0.3183522976311873 0.1847529737937156 0.5376856392752692
0.3094331753459973 0.1774049420699250 0.5418201637051314
0.2943545116146871 0.1577857771505933 0.5000595681236241
0.3113841934542880 0.1878742517209483 0.5384363990854852
0.2905174588056956 0.1643571993108727 0.5049377516598643
0.3126705378134919 0.1398608880367601 0.5121610822589613
0.2798859499310624 0.1773085639773914 0.5133916581689261
0.3228669889575080 0.1686313443218055 0.5427574566116580
0.2987658438194208 0.1693259367668361 0.5158107642481556
0.2908937163258845 0.1779969333336658 0.5186291054060592
0.2944957677511363 0.1885907047598152 0.5380224839000017
0.3069064816361538 0.1711103675761119 0.5231432382500555
0.3091140425892637 0.1430295571783678 0.5057122070772675
0.2961157654075051 0.1794446790845876 0.5111812649126000
0.2956249392276489 0.1720473413498817 0.5059868208144366
0.3188360231072062 0.1573493631057601 0.5302664409467273
0.3218350731886100 0.1510050039018966 0.5286453263257097
0.3043154028926393 0.1779377342072917 0.5152575476143579
0.3090316265548372 0.1645976658430715 0.5297283831188745
0.3151892930960116 0.1578805595793431 0.5208963840762727
0.3227100155327897 0.1742635587790180 0.5355321314328313
0.2803000645745188 0.1800567757120026 0.5047394904347438
0.3143096834352647 0.1837347807333571 0.5309228970273284
0.3148941750792222 0.1770368224350328 0.5362246495149433
0.3074280642354402 0.1828881215297429 0.5244776918723369
0.3178224574718204 0.1701060567906713 0.5294858422237569
0.2788450984449758 0.1839947143637166 0.5189321219585777
0.2870501611869744 0.1598657248926043 0.5008948981143740
0.3083606499338049 0.1460793493680922 0.5122457322226849
0.2988601475490355 0.1754221702523393 0.5214500794092055
0.3140130495378808 0.1769026271108263 0.5215968804773031
0.3040970363038443 0.1566203043230022 0.5030790427014588
0.2989787053681621 0.1881295579263352 0.5292972347645274
0.3207471895124998 0.1794552104655598 0.5427392660445242
0.3042889148738304 0.1534294554548016 0.5110676536512029
0.3005036014630242 0.1787275877802073 0.5287921273938073
0.2919204461874855 0.1717730467454692 0.5139774263439103
0.3085850002617886 0.1741585641020527 0.5322008641516677
0.2810919127271639 0.1869502028238262 0.5257879711882958
0.2854822619531424 0.1713516319402025 0.5102546629534239
0.3066315088746332 0.1628856781695742 0.5190603335435954
0.2883919548626607 0.1859077556739560 0.5291566567851862
0.2822288231730273 0.1654283684088489 0.5013126428929383
0.2992489709215208 0.1599119991423307 0.5105514564171862
0.3100489420001147 0.1519533068885304 0.5153152308601374
0.3131361525055661 0.1644827780506474 0.5237537392136866
0.2810740811843815 0.1922497213821440 0.5316142981447917
0.2930830468202660 0.1806000992303415 0.5256674187894396
0.2884084699828217 0.1911984980814636 0.5345362776654440
0.2855012902437626 0.1823953805533463 0.5219026096582536
0.3132735391573400 0.1440070608122427 0.5185974314799531
0.3237769960133338 0.1543520682545183 0.5348408898817464
0.3256550125035217 0.1622764537369698 0.5463341369827496
0.3328527725904854 0.1646121863835028 0.5434252419051229
0.3304066997933117 0.1628256812113083 0.5510932840007280
0.3267216339597145 0.1585575997227534 0.5399277862408906
0.2961980218755532 0.1904019427206566 0.5499832604896194
0.3037516548778694 0.1895316676930441 0.5555253199430548
0.2940344214596833 0.1961635655107246 0.5401739173795211
0.2866026572788448 0.1970564989640652 0.5382364624133917
0.3160965077402160 0.1924169469466724 0.5447312927120548
0.2962153348276060 0.1990443769057586 0.5477454218162143
0.3152679194289519 0.1914164657543126 0.5689582559394845
0.3111193132661991 0.1844719774014117 0.5467536369914758
0.3199853797305822 0.1814330357254162 0.5502822080994898
0.3203058688015319 0.1870285499156043 0.5625109764215745
0.3147169766160459 0.1860100377224891 0.5548201961170518
0.3227833761752438 0.1915974140273806 0.5536216132659499
0.3070296269886584 0.1989189577323623 0.5592765659320795
0.3198268106420802 0.1972023426338924 0.5714411087868715
0.3139593155599658 0.1936973075666875 0.5557779135200095
0.3149932658001880 0.1950874498550190 0.5627516025201514
0.3227487502711382 0.1898037283681595 0.5717227434446891
0.3231333052430022 0.1879285042895930 0.5435635859551669
0.3074426645590608 0.1954174331254815 0.5486807201430114
0.3033946251062737 0.1878370727547889 0.5446545412840607
0.3095523714306373 0.1898637253264254 0.5518297626200801
0.2976414593342592 0.1913301403436162 0.5434238058077175
0.3305971023742979 0.1695774133791422 0.5514233470543797
0.3228440113990232 0.1770141640093047 0.5585001957181359
0.3305185558245468 0.1937028923899304 0.5869851079690941
0.3405317050914141 0.1903569450019572 0.5832368139580689
0.3315167233044203 0.1740628242750326 0.5594953314368206
0.3364012894957952 0.1760620314295901 0.5750228952820710
0.3302772116772670 0.1920164353369718 0.5695609381505758
0.3400565961998270 0.1826478145639225 0.6003428882013129
0.3371647747246856 0.1933258370378496 0.5945150453642227
0.3277531508126666 0.1797786515145093 0.5697895967707755
0.3251853288687991 0.1943617419662068 0.5786515145093210
0.3286349944027107 0.1859632847736277 0.5758472151927136
0.3366336580342918 0.1805251030325092 0.5815142949035993
0.3292938040873926 0.1876120841612917 0.5598644084699830
0.3306938793827773 0.1814268126366599 0.5633309880400011
0.3310401384238333 0.1850401932747758 0.5849498388130256
0.3330415795076879 0.1660099878579959 0.5585139184266753
0.3362944598054786 0.1694829500831490 0.5662460264231950
0.3368874483590842 0.1851986426884940 0.5650806333787932
0.3329479140435866 0.1751560135332235 0.5686627390067494
0.3235911410741311 0.1743977541032245 0.5501597409040933
0.3388551411539142 0.1843127301558016 0.5899697970764447
0.3266717295748803 0.1932061622540746 0.5632374023590890
0.3441640741285557 0.1770428859574107 0.5960956301251349
0.3291092256792167 0.1815766454659463 0.5503516992572683
0.3343913515022925 0.1902256218725613 0.5762052821457688
0.3414373240718348 0.1748644857599473 0.5888277007232843
0.3460990558158205 0.1837706831684896 0.5973693687404480
0.3384364389770798 0.1842048632840257 0.5746581265411246
0.3508805820183651 0.1830974726181601 0.6151893429605049
0.3450982554907040 0.1875642142477817 0.6030600642753318
0.3445094555545306 0.1903502432140658 0.6122183765616936
0.3467477729270707 0.1794416473233987 0.6055056583733703
0.3429785358288850 0.1943402005051273 0.6044705512769049
0.3515967159244752 0.1868961098215599 0.6068989122060802
0.3521092032401948 0.1915512993440326 0.6178127737872333
0.3373448453826726 0.1894038550239724 0.6015284663925782
-0.2053284200185994 0.0302893686407188 0.4385522343032807
-0.2149211717158621 0.0105604220530708 0.4423414570903569
-0.2073302400726027 0.0104900532802110 0.4384318414708031
-0.2135210764746800 0.0284155806595577 0.4393978563254356
-0.2095053292677150 0.0197683594831047 0.4367321404084399
-0.2265354499148563 0.0202084435546403 0.4427850516222168
-0.2252432215454502 0.0121886373779255 0.4422346274000404
-0.2336791768369456 0.0158669615320367 0.4444794072109045
-0.2175671014019402 0.0187405924400442 0.4423351542184115
-0.1675901737029622 -0.0011235068700806 0.4249979480761032
-0.1511254565717662 0.0379680219004854 0.4281846482184665
-0.1792735042521946 0.0170863677955157 0.4318285060348501
-0.1934838077524327 0.0067590722212388 0.4342668398626732
-0.1565215726263877 -0.0105173391309117 0.4165069423840713
-0.1782392548250130 0.0344205421766350 0.4352494496206559
-0.1701363744025610 0.0210643576081997 0.4274180913367923
-0.1586862501153116 -0.0009122409851229 0.4202848359582832
-0.1887572122756409 0.0267833761752438 0.4361205224801601
-0.1877764973684013 0.0335308000508618 0.4366912116323888
-0.1630607623782371 0.0087828525980648 0.4239809517635823
-0.1917613485353551 0.0207201729300626 0.4340322772864741
-0.1772213210600194 -0.0025126917601418 0.4294088414732963
-0.1584647121447466 0.0349075387634104 0.4292092239339594
-0.1613612807196443 0.0183348151398574 0.4249108248335149
-0.2005797844357957 0.0212858357413728 0.4363094490721463
-0.1819131310663272 0.0043928623964377 0.4302594100531805
-0.1750482862820285 0.0093946300927230 0.4279911739846964
-0.1693268742193090 0.0139141881935839 0.4266334236711736
-0.1821717083824706 0.0259469292198451 0.4334972512198103
-0.1646384948901360 0.0441820153732233 0.4319663713857593
-0.1682198824693894 0.0346894115241830 0.4318794077095493
-0.1742754065826117 0.0279349667279169 0.4314580726874719
-0.1638910261364741 0.0280717151141772 0.4283884144836407
-0.1687212799218124 0.0056237574391591 0.4266647784645227
-0.1971938058326497 0.0293606923186241 0.4366791643708223
-0.1879189303068910 -0.0019802187555318 0.4323512454903800
-0.1580200604856302 0.0056518411217516 0.4168797692271254
-0.1654661058573327 -0.0102862870150366 0.4198597511263141
-0.1987501365040502 0.0128414234318240 0.4359885610852508
-0.1550640933263855 0.0258795922081743 0.4260541977177023
-0.1549435409275294 0.0441405281148479 0.4296563289261432
-0.1867310184573421 0.0109639654239604 0.4321856155896351
-0.3833405520498047 -0.0643561521565147 0.4515544208613094
-0.3842294165604967 -0.0721095622645461 0.4508309469017944
-0.3899806675359708 -0.0653137897762830 0.4546586251860570
-0.3703076489639405 -0.0453048839777903 0.4493018222979053
-0.4073442420223042 -0.0660075843894218 0.4606185889844346
-0.3849274396826624 -0.0434738597860315 0.4526359617738796
-0.3790437087215490 -0.0762063492459242 0.4480749164146434
-0.3815695248163115 -0.0385221959325533 0.4562117645298902
-0.3916768581380101 -0.0466702136942858 0.4562255670216186
-0.3939527533926555 -0.0589988705692281 0.4506321271943494
-0.4001594865951776 -0.0706528010132465 0.4547909854969122
-0.3865176383178713 -0.0534858521966556 0.4521730597102373
-0.3791316297960292 -0.0472531894576489 0.4528868799038612
-0.3931913824182784 -0.0546830787335416 0.4578862541044709
-0.3781012299077259 -0.0592154819278611 0.4521248706639707
-0.4003358074432727 -0.0587761159050281 0.4574181661335320
-0.3744860142562588 -0.0357899408357788 0.4553537761134117
-0.4009787003817127 -0.0640777088262646 0.4522603425192042
-0.3711152941880438 -0.0525933974424502 0.4508226494501191
-0.3723901497680054 -0.0617693418136215 0.4476706549950509
-0.3767696484802551 -0.0685298501322656 0.4490862481207319
-0.4287693792119913 -0.0686701887620391 0.4636985392196705
-0.4385654384210907 -0.0857395627382588 0.4690372313238772
-0.4440996791219860 -0.0926121664377055 0.4720740986369541
-0.4562378137411586 -0.0921991288673031 0.4725709085559992
-0.4324390867816708 -0.0801963065369858 0.4667014188941551
-0.4325949432417407 -0.0923543869534540 0.4678297127555867
-0.4266356177088760 -0.0772578118961721 0.4618756529132085
-0.4392354177522581 -0.0784688409247869 0.4656951933121742
-0.4441477883850634 -0.0788956012037289 0.4708093755220189
-0.4278691455968406 -0.0884737326315737 0.4627225514663902
-0.4342539947692147 -0.0738122153049089 0.4687724309189777
-0.4497226387292532 -0.0866753397641908 0.4729622450989437
-0.4228959801738776 -0.0889371931775400 0.4682379633346381
-0.4116480264880190 -0.0725664008058102 0.4562828513514524
-0.4014084126386545 -0.0795601153864374 0.4517255558021078
-0.3978198445723747 -0.0815443233014284 0.4595917793396443
-0.3961554475712251 -0.0881272342409502 0.4540074347959422
-0.4136641476786831 -0.0887565640372288 0.4644496181626429
-0.4171741293036172 -0.0956606023132138 0.4623391932423640
-0.4219956667755375 -0.0833510934036755 0.4603757289565604
-0.4053687304749345 -0.0774636525242653 0.4589303767013140
-0.4059352310097309 -0.0891109609635815 0.4609158611473321
-0.4260112344703270 -0.0828002702655533 0.4658990393605376
-0.3894142866759580 -0.0940989261681381 0.4542846813783545
-0.3792921934642607 -0.0880112294838776 0.4560208433581743
-0.3793452492850678 -0.0947983853877089 0.4539041953491387
-0.3862210044204873 -0.0848353798552434 0.4538070194247132
-0.3911265136990229 -0.0769464181087894 0.4512057683245779
-0.4122685402418926 -0.0822079598690558 0.4594828752864093
-0.3798404635403290 -0.0780193424369276 0.4553308783381160
-0.4211790459426508 -0.0725403117029472 0.4590553171755752
-0.3769227125287032 -0.0821297723436561 0.4505129311097094
-0.3175660143559876 -0.0074171239656234 0.4527845978553282
-0.3332522669645238 -0.0254543478098268 0.4517568308122678
-0.3245419372854267 -0.0220085118689960 0.4519086582212837
-0.3178390723209678 -0.0150381737627996 0.4547127181883231
-0.3334753407614806 -0.0180992951653881 0.4531217616128171
-0.3492658699982795 -0.0205701805343978 0.4543838518825094
-0.3264108584920478 -0.0149681241226966 0.4556703558080913
-0.3033603781723167 -0.0297380668034616 0.4537805314059046
-0.2767370670203721 -0.0089001338861643 0.4539756810866470
-0.2923270811569559 -0.0330288042245199 0.4500197912173666
-0.3075026016799348 -0.0270224863932264 0.4489135972993389
-0.2829182696023556 -0.0245331711075153 0.4491363519635391
-0.2823573538908017 0.0063898356216980 0.4513522502599188
-0.3007400987815610 -0.0018024618100312 0.4535174064479776
-0.2854858920882501 -0.0117475959081197 0.4501233497969267
-0.2940384505107370 -0.0215223131141124 0.4510082251481600
-0.3144503611435921 -0.0247972534637124 0.4505825020506774
-0.3110677533801894 0.0013601438091985 0.4532897850092374
-0.2646121564648068 -0.0095473351168200 0.4481787941269600
-0.2848134793698125 -0.0029181499275718 0.4475727610219228
-0.2777979839785383 -0.0004167873802941 0.4497704687511687
-0.3067161388925594 -0.0181415802556553 0.4526630880582017
-0.3014092403892422 -0.0233167966052253 0.4518255241381546
-0.3100227930598598 -0.0086141909361311 0.4528489828889992
-0.2904959173446159 -0.0001882883264728 0.4519357845056058
-0.2719249639105730 -0.0058406081473596 0.4490711690979762
-0.2747852510801895 -0.0218181491796044 0.4503369293943708
-0.2927963858215299 -0.0146319177634777 0.4510568131103727
-0.2984233744798510 -0.0108042394792152 0.4487503608942697
-0.2710017926285319 0.0032532393221421 0.4488717909082069
-0.2658931752961327 -0.0018977229379162 0.4480184299167015
